ncols        237
nrows        25
xllcorner    626341.847884
yllcorner    5139594.92769
cellsize     30.005356186395
NODATA_value  -9999
-9999 -9999 -9999 -9999 -9999 -9999 -9999 -9999 -9999 -9999 -9999 -9999 -9999 -9999 -9999 3067.152099609375 3037.79296875 3017.06396484375 2985.06396484375 2970.4150390625 2953.966064453125 2934.967041015625 2903.76806640625 2873.1689453125 2850.949951171875 2796.881103515625 2768.990966796875 2748.172119140625 2729.302978515625 2708.72412109375 2688.655029296875 2669.85595703125 2652.47705078125 2634.008056640625 2615.887939453125 2600.51904296875 2586.179931640625 2573.02099609375 2562.7119140625 2554.31298828125 2543.533935546875 2533.9541015625 2525.47509765625 2518.27587890625 2512.406982421875 2505.298095703125 2502.299072265625 2506.81005859375 2499.260986328125 2486.531005859375 2468.501953125 2450.972900390625 2444.10400390625 2437.875 2435.01611328125 2437.35888671875 2441.54296875 2454.22607421875 2468.3330078125 2498.407958984375 2503.547119140625 2499.054931640625 2491.387939453125 2473.385986328125 2452.114013671875 2433.258056640625 2416.47412109375 2402.010009765625 2386.74609375 2376.56396484375 2370.258056640625 2362.916015625 2355.27197265625 2349.56103515625 2346.455078125 2337.281005859375 2333.537109375 2328.407958984375 2322.68408203125 2322.013916015625 2324.56689453125 2324.95703125 2322.760009765625 2312.426025390625 2306.7548828125 2307.592041015625 2312.968017578125 2325.5419921875 2327.5859375 2326.007080078125 2314.971923828125 2304.7109375 2291.77587890625 2278.174072265625 2253.22705078125 2237.27294921875 2208.742919921875 2187.989013671875 2171.5029296875 2147.35107421875 2120.652099609375 2092.73095703125 2070.115966796875 2047.9969482421875 2006.22998046875 1986.259033203125 1974.541015625 1966.404052734375 1960.864013671875 1956.68701171875 1949.4110107421875 1921.987060546875 1896.385009765625 1878.822021484375 1880.802001953125 1868.904052734375 1834.5570068359375 1814.947998046875 1796.1109619140625 1781.114990234375 1760.3170166015625 1744.781005859375 1736.5689697265625 1728.1390380859375 1713.323974609375 1698.3919677734375 1693.7230224609375 1690.2340087890625 1685.47900390625 1692.7979736328125 1694.760986328125 1695.5250244140625 1697.2039794921875 1701.0360107421875 1712.217041015625 1719.7569580078125 1730.865966796875 1738.8189697265625 1747.573974609375 1753.14404296875 1756.470947265625 1764.6739501953125 1770.240966796875 1773.779052734375 1780.0469970703125 1794.958984375 1810.251953125 1818.801025390625 1829.4580078125 1844.4129638671875 1860.89599609375 1878.3489990234375 1894.6070556640625 1915.06201171875 1932.2669677734375 1942.7490234375 1961.6209716796875 1983.1009521484375 2005.81396484375 2028.5479736328125 2046.2530517578125 2067.27294921875 2087.674072265625 2109.577880859375 2130.302001953125 2151.595947265625 2176.5 2196.152099609375 2216.81591796875 2234.4208984375 2253.402099609375 2264.7451171875 2273.27099609375 2284.346923828125 2291.217041015625 2299.637939453125 2305.781982421875 2306.72998046875 2317.6279296875 2329.97607421875 2339.99609375 2349.614013671875 2360.169921875 2372.284912109375 2381.368896484375 2393.200927734375 2404.903076171875 2416.69189453125 2433.8330078125 2451.194091796875 2470.905029296875 2488.056884765625 2496.697998046875 2511.118896484375 2520.861083984375 2524.902099609375 2533.5830078125 2550.094970703125 2569.52587890625 2590.056884765625 2621.60888671875 2642.919921875 2678.470947265625 2711.302978515625 2737.904052734375 2765.705078125 -9999 -9999 -9999 -9999 -9999 -9999 -9999 -9999 -9999 -9999 -9999 -9999 -9999 -9999 -9999 -9999 -9999 -9999 -9999 -9999 -9999 -9999 -9999 -9999 -9999 -9999 -9999 -9999 -9999 -9999 -9999
-9999 -9999 -9999 -9999 -9999 -9999 -9999 -9999 -9999 -9999 -9999 3109.888916015625 3110.8798828125 3094.19091796875 3084.2119140625 3040.923095703125 3028.64404296875 3014.22509765625 2989.64501953125 2961.8759765625 2934.677001953125 2911.10791015625 2883.198974609375 2866.6298828125 2835.071044921875 2788.77197265625 2761.471923828125 2739.48291015625 2720.843994140625 2702.635009765625 2683.635986328125 2664.89697265625 2647.2880859375 2630.408935546875 2613.658935546875 2597.85009765625 2582.64111328125 2568.06201171875 2559.52294921875 2549.02392578125 2539.594970703125 2528.955078125 2519.736083984375 2512.297119140625 2503.798095703125 2495.569091796875 2487.97998046875 2488.611083984375 2483.052001953125 2476.072021484375 2462.072998046875 2443.553955078125 2430.85498046875 2424.14599609375 2418.1669921875 2417.0849609375 2418.613037109375 2432.802978515625 2437.010986328125 2458.134033203125 2473.35595703125 2458.666015625 2491.617919921875 2469.385009765625 2450.864013671875 2434.800048828125 2420.427978515625 2406.305908203125 2393.054931640625 2384.175048828125 2375.62890625 2369.4619140625 2364.385986328125 2359.60107421875 2355.970947265625 2348.718017578125 2342.337890625 2338.447998046875 2339.447021484375 2339.7470703125 2340.76806640625 2345.447998046875 2341.676025390625 2333.2109375 2330.486083984375 2330.756103515625 2340.719970703125 2347.72412109375 2346.43505859375 2334.220947265625 2325.537109375 2304.81103515625 2290.464111328125 2278.613037109375 2251.720947265625 2227.7958984375 2206.587890625 2188.553955078125 2174.10009765625 2147.235107421875 2122.011962890625 2096.530029296875 2071.85693359375 2032.0450439453125 2008.4029541015625 1987.4630126953125 1970.133056640625 1951.9959716796875 1940.012939453125 1941.7139892578125 1922.2120361328125 1920.5159912109375 1877.4510498046875 1860.387939453125 1849.4169921875 1845.9949951171875 1816.4300537109375 1800.905029296875 1781.7669677734375 1761.8299560546875 1746.656982421875 1727.9129638671875 1713.8590087890625 1709.45703125 1697.498046875 1682.2779541015625 1676.2659912109375 1674.958984375 1676.884033203125 1685.97705078125 1685.760009765625 1686.501953125 1682.9100341796875 1696.7640380859375 1704.9859619140625 1715.5250244140625 1725.2769775390625 1737.126953125 1746.322998046875 1750.656982421875 1753.0179443359375 1764.405029296875 1768.050048828125 1772.178955078125 1778.5279541015625 1792.6929931640625 1803.280029296875 1811.9090576171875 1824.843994140625 1839.56298828125 1854.7459716796875 1870.759033203125 1889.072021484375 1908.739990234375 1926.4599609375 1936.0689697265625 1956.5269775390625 1978.6180419921875 1996.717041015625 2017.302001953125 2044.541015625 2064.221923828125 2085.014892578125 2111.615966796875 2133.152099609375 2156.2099609375 2176.7958984375 2193.35009765625 2211.39208984375 2228.989990234375 2240.722900390625 2245.97802734375 2256.6279296875 2264.820068359375 2276.10205078125 2282.68994140625 2283.97509765625 2295.4970703125 2311.946044921875 2321.10302734375 2329.576904296875 2341.09912109375 2351.972900390625 2360.22802734375 2370.072021484375 2382.10107421875 2391.447998046875 2408.08203125 2426.114013671875 2452.014892578125 2469.656005859375 2483.827880859375 2495.638916015625 2509.3798828125 2523.241943359375 2531.262939453125 2538.013916015625 2549.236083984375 2566.737060546875 2587.6279296875 2614.449951171875 2649.881103515625 2677.2119140625 2692.763916015625 2721.135009765625 2746.466064453125 -9999 -9999 -9999 -9999 -9999 -9999 -9999 -9999 -9999 -9999 -9999 -9999 -9999 -9999 -9999 -9999 -9999 -9999 -9999 -9999 -9999 -9999 -9999 -9999 -9999 -9999 -9999 -9999 -9999 -9999 -9999
-9999 -9999 -9999 -9999 -9999 -9999 -9999 -9999 -9999 -9999 3124.820068359375 3106.409912109375 3082.87109375 3070.382080078125 3041.462890625 3026.77392578125 3003.5048828125 2990.035888671875 2969.31689453125 2945.81689453125 2918.7880859375 2880.05908203125 2838.669921875 2840.2509765625 2813.27197265625 2786.552978515625 2763.992919921875 2738.0439453125 2721.22509765625 2701.9560546875 2682.9970703125 2663.927978515625 2646.458984375 2629.2099609375 2614.949951171875 2599.8310546875 2586.412109375 2573.012939453125 2561.72412109375 2550.824951171875 2540.0458984375 2529.677001953125 2520.136962890625 2509.80810546875 2500.7890625 2490.2900390625 2481.12109375 2470.681884765625 2462.443115234375 2459.14306640625 2451.35400390625 2432.1650390625 2416.426025390625 2411.346923828125 2407.05810546875 2404.587890625 2400.737060546875 2403.5439453125 2408.655029296875 2433.81005859375 2430.77099609375 2428.825927734375 2447.89306640625 2461.367919921875 2452.343994140625 2432.839111328125 2422.926025390625 2413.238037109375 2399.887939453125 2390.177001953125 2385.047119140625 2378.154052734375 2373.916015625 2367.385009765625 2364.30908203125 2359.705078125 2362.071044921875 2364.0380859375 2369.18896484375 2365.343994140625 2373.947998046875 2371.7900390625 2365.2109375 2354.447021484375 2355.034912109375 2357.741943359375 2364.01904296875 2361.62109375 2348.14599609375 2326.115966796875 2302.781005859375 2292.445068359375 2270.169921875 2265.27099609375 2242.60205078125 2216.68603515625 2197.15087890625 2177.819091796875 2166.283935546875 2146.5810546875 2121.06591796875 2094.31005859375 2065.02294921875 2038.968994140625 2008.593017578125 1987.2740478515625 1963.2120361328125 1943.1820068359375 1932.4859619140625 1911.2860107421875 1893.64599609375 1895.4969482421875 1861.3349609375 1841.3360595703125 1823.782958984375 1804.365966796875 1793.782958984375 1774.1080322265625 1754.237060546875 1740.8509521484375 1731.89404296875 1715.43798828125 1696.208984375 1690.657958984375 1678.81298828125 1669.133056640625 1664.64599609375 1667.9210205078125 1673.1800537109375 1678.093017578125 1676.3170166015625 1677.5159912109375 1672.541015625 1691.594970703125 1701.511962890625 1713.029052734375 1724.261962890625 1737.6180419921875 1741.751953125 1745.199951171875 1759.300048828125 1762.83203125 1765.7740478515625 1769.3070068359375 1775.291015625 1792.1810302734375 1800.6009521484375 1810.0379638671875 1820.4830322265625 1834.9119873046875 1849.35302734375 1865.613037109375 1883.43701171875 1903.0419921875 1921.345947265625 1931.8719482421875 1953.72998046875 1978.81396484375 1997.72705078125 2020.9229736328125 2047.303955078125 2076.193115234375 2093.992919921875 2114.15087890625 2135.068115234375 2156.2529296875 2175.85400390625 2192.533935546875 2205.033935546875 2216.175048828125 2226.757080078125 2235.87890625 2242.31103515625 2249.860107421875 2264.201904296875 2265.490966796875 2272.159912109375 2286.60498046875 2302.81005859375 2314.700927734375 2326.990966796875 2335.791015625 2342.907958984375 2352.1708984375 2362.39208984375 2371.81689453125 2381.2099609375 2397.780029296875 2417.135009765625 2438.256103515625 2457.987060546875 2472.408935546875 2488.0400390625 2505.571044921875 2520.262939453125 2530.714111328125 2539.054931640625 2553.677001953125 2571.577880859375 2591.819091796875 2615.64111328125 2638.342041015625 2661.02294921875 2686.89501953125 2710.916015625 2749.626953125 2794.638916015625 -9999 -9999 -9999 -9999 -9999 -9999 -9999 -9999 -9999 -9999 -9999 -9999 -9999 -9999 -9999 -9999 -9999 -9999 -9999 -9999 -9999 -9999 -9999 -9999 -9999 -9999 -9999 -9999 -9999 -9999
-9999 -9999 -9999 -9999 -9999 -9999 -9999 -9999 3148.029052734375 3136.169921875 3120.1708984375 3088.5810546875 3056.201904296875 3036.8330078125 3020.4541015625 3009.35498046875 2987.885986328125 2972.007080078125 2952.197998046875 2933.347900390625 2906.97900390625 2851.929931640625 2826.180908203125 2805.19189453125 2783.992919921875 2768.27392578125 2754.304931640625 2738.864990234375 2724.696044921875 2706.136962890625 2687.097900390625 2669.138916015625 2650.81005859375 2634.910888671875 2618.65087890625 2601.531982421875 2587.722900390625 2575.1240234375 2562.445068359375 2552.095947265625 2540.97705078125 2529.43798828125 2518.318115234375 2506.759033203125 2495.820068359375 2485.260986328125 2474.132080078125 2463.39306640625 2452.64404296875 2444.23388671875 2438.655029296875 2425.825927734375 2409.866943359375 2401.968017578125 2396.85888671875 2393.904052734375 2387.617919921875 2383.01611328125 2384.464111328125 2393.277099609375 2399.73193359375 2404.0869140625 2407.2490234375 2436.4560546875 2440.197021484375 2428.22900390625 2424.135986328125 2414.60400390625 2403.592041015625 2398.14111328125 2392.968017578125 2389.322998046875 2383.0380859375 2377.833984375 2378.139892578125 2371.962890625 2371.5009765625 2367.763916015625 2366.81689453125 2366.657958984375 2368.18798828125 2366.3779296875 2357.239990234375 2357.9990234375 2354.574951171875 2347.56396484375 2340.077880859375 2339.032958984375 2327.680908203125 2313.25390625 2281.633056640625 2271.340087890625 2250.596923828125 2254.758056640625 2239.19091796875 2210.8740234375 2190.695068359375 2168.506103515625 2152.8291015625 2139.804931640625 2122.666015625 2093.197021484375 2070.4951171875 2040.134033203125 2006.1280517578125 1981.9599609375 1961.156982421875 1943.27294921875 1928.4530029296875 1900.7249755859375 1876.41796875 1857.5579833984375 1842.031982421875 1823.5059814453125 1807.303955078125 1788.7130126953125 1769.60205078125 1751.9320068359375 1735.7879638671875 1723.1820068359375 1713.85400390625 1700.2550048828125 1686.6429443359375 1673.9310302734375 1664.6920166015625 1660.3499755859375 1661.344970703125 1663.762939453125 1664.905029296875 1668.7960205078125 1669.5899658203125 1666.7039794921875 1670.93603515625 1691.02294921875 1701.1729736328125 1709.780029296875 1725.89599609375 1731.1419677734375 1738.012939453125 1751.7640380859375 1756.9229736328125 1760.7230224609375 1763.9420166015625 1766.7349853515625 1774.58203125 1789.446044921875 1800.094970703125 1809.612060546875 1818.20703125 1831.427001953125 1846.4139404296875 1861.9659423828125 1880.9139404296875 1901.2939453125 1922.64501953125 1934.654052734375 1955.322998046875 1975.386962890625 2000.741943359375 2027.0699462890625 2051.202880859375 2072.47705078125 2092.6220703125 2114.64697265625 2135.56298828125 2157.43798828125 2172.675048828125 2190.4150390625 2199.5439453125 2203.52099609375 2212.60009765625 2218.52587890625 2221.43994140625 2235.887939453125 2248.199951171875 2249.991943359375 2257.69189453125 2272.472900390625 2292.14697265625 2312.406005859375 2320.864013671875 2331.902099609375 2341.095947265625 2351.431884765625 2361.10498046875 2371.5400390625 2383.126953125 2394.262939453125 2406.89599609375 2421.547119140625 2437.41796875 2452.72998046875 2470.37109375 2488.39208984375 2503.8740234375 2517.31494140625 2535.35595703125 2554.64794921875 2575.47900390625 2598.85009765625 2619.58203125 2642.1630859375 2666.60400390625 2701.906005859375 2722.096923828125 2757.837890625 2793.010009765625 -9999 -9999 -9999 -9999 -9999 -9999 -9999 -9999 -9999 -9999 -9999 -9999 -9999 -9999 -9999 -9999 -9999 -9999 -9999 -9999 -9999 -9999 -9999 -9999 -9999 -9999 -9999 -9999 -9999 -9999
-9999 -9999 -9999 -9999 -9999 -9999 3172.248046875 3147.37890625 3131.47998046875 3120.031005859375 3096.672119140625 3071.431884765625 3039.5029296875 3019.98388671875 3003.135009765625 2986.966064453125 2973.95703125 2959.117919921875 2941.60888671875 2921.87890625 2894.3798828125 2848.041015625 2815.681884765625 2793.18310546875 2778.833984375 2765.114990234375 2754.906005859375 2742.8359375 2722.987060546875 2708.97802734375 2693.4189453125 2677.409912109375 2658.660888671875 2643.02197265625 2623.85205078125 2608.29296875 2593.02392578125 2577.18505859375 2563.26611328125 2552.22705078125 2542.16796875 2531.029052734375 2521.10888671875 2506.699951171875 2495.3310546875 2484.362060546875 2472.363037109375 2460.823974609375 2449.554931640625 2440.236083984375 2428.5859375 2416.22705078125 2406.68798828125 2396.84912109375 2388.72998046875 2380.096923828125 2373.8740234375 2368.79296875 2364.6220703125 2365.068115234375 2374.75390625 2382.404052734375 2379.700927734375 2394.5400390625 2420.0810546875 2424.26708984375 2402.85400390625 2401.529052734375 2399.125 2402.883056640625 2401.095947265625 2395.862060546875 2391.302001953125 2381.488037109375 2371.2939453125 2362.43603515625 2357.076904296875 2354.14501953125 2354.195068359375 2356.839111328125 2360.319091796875 2352.429931640625 2336.52001953125 2336.55810546875 2337.5 2331.408935546875 2315.9140625 2309.89892578125 2306.471923828125 2296.449951171875 2261.4560546875 2252.89697265625 2231.027099609375 2227.507080078125 2229.7451171875 2209.85595703125 2182.431884765625 2158.594970703125 2149.16796875 2131.800048828125 2117.131103515625 2090.60400390625 2071.090087890625 2043.4239501953125 2012.468017578125 1978.927978515625 1960.0560302734375 1944.2979736328125 1922.1309814453125 1907.656005859375 1878.008056640625 1844.4649658203125 1823.071044921875 1807.5340576171875 1790.3179931640625 1774.6529541015625 1756.18701171875 1739.800048828125 1721.52099609375 1704.93505859375 1694.27001953125 1686.8310546875 1673.738037109375 1663.050048828125 1656.47998046875 1656.43603515625 1655.27099609375 1653.5260009765625 1658.7679443359375 1664.1090087890625 1658.20703125 1666.4749755859375 1681.3199462890625 1690.31005859375 1699.0760498046875 1714.092041015625 1721.0169677734375 1729.4539794921875 1741.2659912109375 1753.1490478515625 1756.0810546875 1756.916015625 1761.48095703125 1769.2879638671875 1778.3909912109375 1787.0340576171875 1800.2939453125 1810.345947265625 1819.2960205078125 1829.0550537109375 1846.3160400390625 1865.51904296875 1885.64501953125 1906.7779541015625 1925.3310546875 1937.7359619140625 1956.7049560546875 1977.89404296875 2001.8160400390625 2026.1600341796875 2057.007080078125 2075.342041015625 2095.6630859375 2117.506103515625 2138.571044921875 2156.74609375 2170.15087890625 2179.612060546875 2188.324951171875 2192.7548828125 2196.69189453125 2198.83203125 2204.56591796875 2218.1708984375 2229.762939453125 2234.013916015625 2246.1298828125 2262.593994140625 2284.287109375 2305.284912109375 2327.02587890625 2338.089111328125 2343.678955078125 2349.94091796875 2360.56494140625 2372.76904296875 2385.56103515625 2398.5380859375 2411.45703125 2424.278076171875 2436.968994140625 2450.010986328125 2464.9619140625 2479.512939453125 2495.675048828125 2511.656005859375 2529.20703125 2551.118896484375 2572.800048828125 2584.160888671875 2628.532958984375 2646.23388671875 2676.81494140625 2697.126953125 2719.3779296875 2746.089111328125 2768.90087890625 -9999 -9999 -9999 -9999 -9999 -9999 -9999 -9999 -9999 -9999 -9999 -9999 -9999 -9999 -9999 -9999 -9999 -9999 -9999 -9999 -9999 -9999 -9999 -9999 -9999 -9999 -9999 -9999 -9999 -9999
-9999 -9999 -9999 -9999 3196.596923828125 3175.597900390625 3157.6689453125 3123.60009765625 3108.071044921875 3102.2919921875 3072.193115234375 3047.263916015625 3021.56396484375 3000.39501953125 2982.256103515625 2966.596923828125 2952.137939453125 2944.4990234375 2930.489990234375 2906.159912109375 2880.9208984375 2851.322021484375 2813.302978515625 2780.6640625 2772.264892578125 2763.5458984375 2753.70703125 2741.70703125 2727.30810546875 2708.759033203125 2690.6201171875 2674.010986328125 2656.241943359375 2640.072998046875 2627.404052734375 2613.00390625 2597.925048828125 2582.99609375 2565.427001953125 2552.9580078125 2542.458984375 2531.739990234375 2520.93994140625 2509.73095703125 2499.612060546875 2482.742919921875 2470.93408203125 2460.534912109375 2449.216064453125 2438.93701171875 2426.987060546875 2415.498046875 2405.43896484375 2395.6201171875 2386.801025390625 2378.55908203125 2371.922119140625 2366.8759765625 2362.029052734375 2358.991943359375 2357.74609375 2366.37109375 2361.455078125 2353.68896484375 2352.708984375 2381.7919921875 2363.10400390625 2365.14697265625 2378.56591796875 2378.2548828125 2389.404052734375 2388.56298828125 2379.2529296875 2365.839111328125 2354.330078125 2346.2490234375 2343.426025390625 2346.68994140625 2350.205078125 2349.656005859375 2347.241943359375 2337.948974609375 2320.594970703125 2314.595947265625 2316.18408203125 2314.764892578125 2295.281005859375 2284.97998046875 2279.26708984375 2266.075927734375 2243.568115234375 2235.235107421875 2213.39990234375 2206.802001953125 2212.177001953125 2185.39794921875 2178.050048828125 2148.9150390625 2128.716064453125 2109.01806640625 2101.52099609375 2083.01611328125 2064.575927734375 2039.4840087890625 2017.115966796875 1979.9720458984375 1959.8409423828125 1943.5250244140625 1915.8409423828125 1904.5560302734375 1883.3480224609375 1843.4429931640625 1815.114013671875 1792.324951171875 1774.720947265625 1758.844970703125 1742.7320556640625 1726.5970458984375 1711.9560546875 1695.7779541015625 1684.1600341796875 1675.5460205078125 1664.4300537109375 1656.072021484375 1651.35400390625 1650.4320068359375 1640.3409423828125 1640.9639892578125 1646.60205078125 1650.4010009765625 1665.385986328125 1673.8270263671875 1682.156005859375 1690.260009765625 1700.5679931640625 1710.802978515625 1718.3189697265625 1729.93798828125 1740.9410400390625 1746.89599609375 1750.60205078125 1756.7919921875 1764.425048828125 1771.77099609375 1781.5810546875 1790.7669677734375 1801.2320556640625 1813.2640380859375 1826.791015625 1837.197998046875 1851.6240234375 1874.5660400390625 1893.4210205078125 1914.7130126953125 1935.1390380859375 1946.8270263671875 1967.60498046875 1992.2950439453125 2007.18798828125 2030.261962890625 2055.51708984375 2076.43701171875 2096.10498046875 2117.592041015625 2136.550048828125 2153.01611328125 2160.610107421875 2166.001953125 2171.718994140625 2177.35595703125 2177.76904296875 2179.925048828125 2188.1220703125 2200.51904296875 2211.615966796875 2226.73291015625 2246.989013671875 2265.68798828125 2286.300048828125 2311.05908203125 2327.218994140625 2336.158935546875 2340.1220703125 2349.02490234375 2359.968017578125 2372.43603515625 2385.735107421875 2399.14501953125 2413.097900390625 2427.138916015625 2441.159912109375 2454.98193359375 2469.452880859375 2483.263916015625 2498.31591796875 2511.70703125 2529.798095703125 2552.8701171875 2574.430908203125 2587.471923828125 2613.154052734375 2644.844970703125 2670.6259765625 2705.8779296875 2729.118896484375 2762.990966796875 2785.23193359375 2803.863037109375 -9999 -9999 -9999 -9999 -9999 -9999 -9999 -9999 -9999 -9999 -9999 -9999 -9999 -9999 -9999 -9999 -9999 -9999 -9999 -9999 -9999 -9999 -9999 -9999 -9999 -9999 -9999 -9999 -9999
-9999 3202.166015625 3202.656982421875 3195.64794921875 3183.847900390625 3154.989013671875 3137.320068359375 3099.64111328125 3080.2919921875 3070.06298828125 3066.39404296875 3043.324951171875 3010.794921875 2976.676025390625 2964.326904296875 2948.51806640625 2930.589111328125 2920.85009765625 2903.841064453125 2877.551025390625 2831.44189453125 2809.363037109375 2789.4541015625 2776.034912109375 2769.486083984375 2765.886962890625 2757.85791015625 2743.818115234375 2725.638916015625 2708.219970703125 2689.73095703125 2675.39208984375 2660.903076171875 2643.06396484375 2629.514892578125 2612.8349609375 2598.1259765625 2583.217041015625 2564.577880859375 2552.549072265625 2540.77001953125 2528.77099609375 2518.720947265625 2506.58203125 2494.093017578125 2479.884033203125 2467.455078125 2456.365966796875 2445.626953125 2434.387939453125 2423.238037109375 2413.178955078125 2402.389892578125 2392.4609375 2383.181884765625 2374.576904296875 2367.7939453125 2361.993896484375 2358.072998046875 2353.64501953125 2352.488037109375 2351.93994140625 2342.64697265625 2336.722900390625 2324.263916015625 2322.3798828125 2330.2041015625 2337.14306640625 2344.990966796875 2349.681884765625 2369.133056640625 2373.1689453125 2360.6708984375 2350.294921875 2338.9189453125 2332.60693359375 2331.748046875 2332.7958984375 2333.7509765625 2333.98095703125 2333.864990234375 2323.160888671875 2301.06689453125 2280.260009765625 2285.427001953125 2299.193115234375 2288.347900390625 2264.18994140625 2251.27099609375 2244.297119140625 2234.791015625 2208.553955078125 2191.114013671875 2175.676025390625 2177.958984375 2162.993896484375 2155.31005859375 2133.501953125 2103.801025390625 2090.64501953125 2075.012939453125 2073.467041015625 2061.324951171875 2038.3570556640625 2012.050048828125 1981.2349853515625 1959.824951171875 1936.68994140625 1911.614990234375 1899.217041015625 1878.822998046875 1848.7159423828125 1814.39599609375 1786.0469970703125 1764.3680419921875 1746.4749755859375 1730.7110595703125 1714.833984375 1701.4310302734375 1689.531982421875 1679.8389892578125 1671.093017578125 1661.345947265625 1652.4029541015625 1646.217041015625 1642.093994140625 1634.77294921875 1644.9610595703125 1652.8470458984375 1661.6529541015625 1669.3489990234375 1674.9859619140625 1682.553955078125 1689.3780517578125 1697.72802734375 1706.741943359375 1714.8780517578125 1728.573974609375 1738.251953125 1746.7149658203125 1753.529052734375 1759.9990234375 1767.907958984375 1774.4300537109375 1783.741943359375 1795.9859619140625 1808.5240478515625 1822.6800537109375 1837.8070068359375 1852.5450439453125 1865.322998046875 1880.864013671875 1903.3780517578125 1923.4849853515625 1943.2010498046875 1957.06298828125 1976.02001953125 1998.18896484375 2018.3160400390625 2040.3599853515625 2059.39208984375 2077.5849609375 2098.123046875 2118.302978515625 2133.72900390625 2142.02001953125 2148.89794921875 2154.1279296875 2156.8779296875 2156.541015625 2158.654052734375 2167.4208984375 2179.2548828125 2191.282958984375 2206.35009765625 2227.573974609375 2250.39892578125 2265.054931640625 2284.197998046875 2309.48291015625 2323.970947265625 2333.068115234375 2339.196044921875 2347.3701171875 2358.927978515625 2371.10693359375 2383.884033203125 2397.27001953125 2410.868896484375 2426.070068359375 2441.781005859375 2458.29296875 2473.97412109375 2489.175048828125 2503.906982421875 2519.117919921875 2535.43896484375 2552.37109375 2573.10205078125 2593.02294921875 2614.465087890625 2636.865966796875 2662.298095703125 2684.138916015625 2722.47998046875 2750.471923828125 2772.923095703125 2786.8740234375 -9999 -9999 -9999 -9999 -9999 -9999 -9999 -9999 -9999 -9999 -9999 -9999 -9999 -9999 -9999 -9999 -9999 -9999 -9999 -9999 -9999 -9999 -9999 -9999 -9999 -9999 -9999 -9999 -9999
3210.785888671875 3212.427001953125 3181.568115234375 3174.76904296875 3159.59912109375 3137.39990234375 3104.94091796875 3071.431884765625 3055.222900390625 3038.8740234375 3032.965087890625 3017.10595703125 2997.81591796875 2968.197021484375 2951.01806640625 2932.55908203125 2908.3798828125 2887.85107421875 2867.431884765625 2846.5830078125 2823.722900390625 2806.174072265625 2789.985107421875 2779.615966796875 2775.616943359375 2769.60791015625 2759.009033203125 2742.989013671875 2725.469970703125 2710.39111328125 2691.322021484375 2678.173095703125 2664.5439453125 2650.875 2633.216064453125 2619.115966796875 2598.51708984375 2580.887939453125 2564.718994140625 2550.35009765625 2538.740966796875 2527.06201171875 2516.77294921875 2505.943115234375 2494.56396484375 2482.864990234375 2469.2060546875 2453.677001953125 2443.587890625 2433.09912109375 2420.468994140625 2411.31005859375 2400.87109375 2390.27197265625 2379.552978515625 2369.802978515625 2362.431884765625 2354.427001953125 2347.97607421875 2343.87109375 2338.7451171875 2336.77587890625 2324.89501953125 2317.138916015625 2315.7509765625 2304.931884765625 2307.678955078125 2315.825927734375 2318.97802734375 2328.743896484375 2346.882080078125 2355.64697265625 2342.02392578125 2333.7939453125 2322.89111328125 2318.0859375 2314.3310546875 2314.18310546875 2309.84912109375 2311.136962890625 2311.632080078125 2303.032958984375 2288.824951171875 2266.58203125 2251.22705078125 2280.762939453125 2281.635986328125 2245.47802734375 2234.739013671875 2224.805908203125 2208.547119140625 2194.577880859375 2171.991943359375 2155.530029296875 2146.117919921875 2142.096923828125 2132.64794921875 2107.875 2092.19189453125 2069.722900390625 2053.756103515625 2042.8480224609375 2030.280029296875 2016.8330078125 2004.43603515625 1979.718994140625 1957.4410400390625 1924.133056640625 1908.635009765625 1887.010009765625 1876.02001953125 1839.0030517578125 1810.4229736328125 1780.3780517578125 1755.842041015625 1735.5579833984375 1722.5799560546875 1709.5250244140625 1696.0760498046875 1684.6629638671875 1676.001953125 1668.3189697265625 1659.2769775390625 1649.5780029296875 1640.3900146484375 1634.7490234375 1637.5799560546875 1650.1390380859375 1658.885986328125 1664.18798828125 1670.5250244140625 1677.032958984375 1684.5350341796875 1690.907958984375 1696.02294921875 1703.531005859375 1712.9219970703125 1727.8929443359375 1738.31201171875 1746.5570068359375 1754.739013671875 1763.719970703125 1768.4630126953125 1777.06201171875 1787.623046875 1800.8819580078125 1816.7340087890625 1834.64599609375 1852.5489501953125 1868.510009765625 1881.60205078125 1892.7509765625 1908.7220458984375 1929.593994140625 1949.1600341796875 1959.14599609375 1979.4169921875 2001.35302734375 2022.345947265625 2042.863037109375 2060.90087890625 2079.294921875 2098.27197265625 2111.0009765625 2123.385009765625 2133.219970703125 2135.136962890625 2138.051025390625 2137.154052734375 2141.6640625 2150.491943359375 2158.881103515625 2170.62890625 2184.47900390625 2202.22509765625 2221.660888671875 2237.881103515625 2254.0048828125 2274.23388671875 2298.219970703125 2314.944091796875 2323.955078125 2330.903076171875 2340.134033203125 2353.556884765625 2367.72412109375 2382.72802734375 2395.596923828125 2408.429931640625 2423.591064453125 2444.58203125 2465.47412109375 2481.054931640625 2497.2060546875 2511.30810546875 2525.85888671875 2541.820068359375 2558.802001953125 2575.5029296875 2594.294921875 2615.2958984375 2635.537109375 2655.259033203125 2678.239990234375 2704.321044921875 2725.343017578125 2748.47412109375 2770.695068359375 2795.39697265625 -9999 -9999 -9999 -9999 -9999 -9999 -9999 -9999 -9999 -9999 -9999 -9999 -9999 -9999 -9999 -9999 -9999 -9999 -9999 -9999 -9999 -9999 -9999 -9999 -9999 -9999 -9999 -9999
3207.72705078125 3179.68798828125 3159.888916015625 3140.340087890625 3132.5400390625 3108.02099609375 3088.162109375 3056.85302734375 3043.343994140625 3025.205078125 3012.256103515625 2997.06689453125 2984.906982421875 2976.197998046875 2956.85888671875 2938.31005859375 2915.930908203125 2893.112060546875 2866.06298828125 2844.0439453125 2827.714111328125 2810.0849609375 2793.716064453125 2782.677001953125 2776.258056640625 2765.158935546875 2756.27001953125 2746 2729.321044921875 2713.31201171875 2695.972900390625 2681.783935546875 2671.0849609375 2660.93603515625 2640.85693359375 2619.257080078125 2597.468017578125 2578.009033203125 2563.300048828125 2549.90087890625 2537.73193359375 2526.7529296875 2516.743896484375 2504.614013671875 2492.18505859375 2481.01611328125 2466.01708984375 2450.968017578125 2441.10888671875 2431.14990234375 2419.860107421875 2406.531005859375 2396.632080078125 2388.4130859375 2378.614013671875 2364.910888671875 2357.404052734375 2349.152099609375 2339.77099609375 2332.0869140625 2324.447998046875 2319.14404296875 2312.034912109375 2300.72412109375 2301.0810546875 2297.907958984375 2289.376953125 2294.719970703125 2297.091064453125 2303.363037109375 2321.383056640625 2336.989990234375 2326.178955078125 2319.5 2306.02294921875 2301.23193359375 2293.27099609375 2293.181884765625 2285.3291015625 2286.488037109375 2292.31689453125 2288.35498046875 2265.83203125 2248.077880859375 2225.2958984375 2239.60302734375 2260.112060546875 2235.4560546875 2210.339111328125 2207.386962890625 2198.541015625 2174.89111328125 2150.717041015625 2135.35009765625 2126.428955078125 2113.02587890625 2111.412109375 2081.929931640625 2067.681884765625 2058.919921875 2035.7459716796875 2023.636962890625 2008.864013671875 1996.989990234375 1987.7359619140625 1976.5830078125 1953.2550048828125 1920.177001953125 1905.6839599609375 1863.363037109375 1861.43505859375 1827.510009765625 1800.06201171875 1768.4580078125 1746.6729736328125 1727.365966796875 1713.81201171875 1701.8310546875 1689.885986328125 1680.0340576171875 1670.655029296875 1664.2239990234375 1658.5389404296875 1641.7760009765625 1635.2030029296875 1626.116943359375 1645.6400146484375 1653.449951171875 1660.031982421875 1665.842041015625 1672.947021484375 1679.64501953125 1685.178955078125 1691.998046875 1697.35302734375 1707.22900390625 1717.52197265625 1729.362060546875 1738.2559814453125 1748.14697265625 1757.9830322265625 1763.178955078125 1771.2950439453125 1781.52099609375 1792.7679443359375 1806.8929443359375 1825.4630126953125 1845.251953125 1864.488037109375 1882.4010009765625 1898.1099853515625 1911.5360107421875 1920.114990234375 1934.14404296875 1951.885986328125 1959.04296875 1982.0989990234375 2002.885009765625 2024.5770263671875 2041.18603515625 2059.794921875 2079.89990234375 2095.679931640625 2110.261962890625 2119.756103515625 2120.884033203125 2124.508056640625 2127.115966796875 2125.591064453125 2127.7451171875 2136.0830078125 2144.825927734375 2156.547119140625 2172.431884765625 2188.160888671875 2205.81396484375 2224.547119140625 2242.843017578125 2263.2109375 2283.5029296875 2292.85693359375 2300.9208984375 2315.35791015625 2329.616943359375 2347.990966796875 2372.118896484375 2386.097900390625 2401.923095703125 2416.0810546875 2430.491943359375 2446.822998046875 2466.905029296875 2488.06591796875 2509.5869140625 2531.718994140625 2538.85009765625 2549.781982421875 2565.673095703125 2581.553955078125 2598.416015625 2616.927001953125 2635.64794921875 2656.7099609375 2678.950927734375 2701.451904296875 2724.323974609375 2758.6650390625 2786.196044921875 2807.248046875 -9999 -9999 -9999 -9999 -9999 -9999 -9999 -9999 -9999 -9999 -9999 -9999 -9999 -9999 -9999 -9999 -9999 -9999 -9999 -9999 -9999 -9999 -9999 -9999 -9999 -9999 -9999 -9999
3176.7080078125 3153.448974609375 3135.9599609375 3117.051025390625 3097.77197265625 3077.31201171875 3060.14306640625 3046.283935546875 3027.614990234375 3011.095947265625 3001.26708984375 2987.55810546875 2981.117919921875 2963.549072265625 2954.889892578125 2936.260986328125 2912.031982421875 2892.02294921875 2872.343994140625 2851.1650390625 2825.405029296875 2805.1259765625 2792.277099609375 2782.30810546875 2771.0791015625 2761.52001953125 2756.87109375 2749.06201171875 2736.0419921875 2718.0830078125 2704.823974609375 2697.31494140625 2683.595947265625 2661.81689453125 2647.80810546875 2635.488037109375 2626.118896484375 2590.389892578125 2565.69091796875 2550.1220703125 2548.423095703125 2537.533935546875 2529.864990234375 2515.5849609375 2497.656005859375 2486.237060546875 2471.248046875 2459.279052734375 2444.719970703125 2431.160888671875 2418.172119140625 2406.2919921875 2397.653076171875 2389.9140625 2381.574951171875 2370.65087890625 2353.6240234375 2342.39892578125 2333.656982421875 2326.60302734375 2317.126953125 2308.298095703125 2298.327880859375 2293.048095703125 2287.945068359375 2282.37109375 2279.9970703125 2277.404052734375 2278.739990234375 2285.947021484375 2302.037109375 2324.6708984375 2301.134033203125 2308.672119140625 2292.594970703125 2273.8310546875 2268.757080078125 2264.408935546875 2260.593017578125 2261.1689453125 2274.72412109375 2257.528076171875 2240.589111328125 2227.0048828125 2207.51806640625 2203.93310546875 2225.597900390625 2211.345947265625 2190.341064453125 2170.114990234375 2175.762939453125 2158.615966796875 2139.468994140625 2120.205078125 2100.094970703125 2087.468017578125 2075.679931640625 2059.8359375 2045.4129638671875 2030.052001953125 2017.4630126953125 2004.489990234375 1987.1190185546875 1974.010986328125 1961.7850341796875 1954.637939453125 1913.0870361328125 1910.363037109375 1901.113037109375 1843.342041015625 1828.3489990234375 1809.52001953125 1779.1080322265625 1754.7869873046875 1734.2459716796875 1719.843017578125 1707.0889892578125 1695.865966796875 1683.7989501953125 1674.0899658203125 1666.3270263671875 1658.6390380859375 1644.0279541015625 1634.7320556640625 1623.18603515625 1629.0369873046875 1645.4420166015625 1652.8399658203125 1661.239990234375 1667.7840576171875 1672.9759521484375 1678.261962890625 1685.5810546875 1692.6739501953125 1701.4410400390625 1711.782958984375 1722.06298828125 1730.053955078125 1740.5560302734375 1750.6600341796875 1759.762939453125 1766.2469482421875 1773.91796875 1784.02099609375 1795.7030029296875 1811.9840087890625 1830.5980224609375 1852.3690185546875 1873.0419921875 1893.5460205078125 1913.0350341796875 1929.4739990234375 1940.7659912109375 1942.4610595703125 1956.1929931640625 1965.8179931640625 1984.9229736328125 2006.7139892578125 2025.3709716796875 2042.5849609375 2061.487060546875 2080.7509765625 2090.361083984375 2100.278076171875 2107.9189453125 2116.134033203125 2120.652099609375 2113.593017578125 2115.407958984375 2122.572021484375 2132.262939453125 2142.8779296875 2154.830078125 2167.260009765625 2181.662109375 2197.52294921875 2213.7939453125 2233.291015625 2253.27294921875 2267.68310546875 2280.697021484375 2295.22802734375 2307.51806640625 2317.387939453125 2350.0380859375 2380.4609375 2396.763916015625 2410.6669921875 2425.39208984375 2439.972900390625 2452.243896484375 2471.0458984375 2490.556884765625 2513.0380859375 2536.06005859375 2543.35107421875 2554.113037109375 2573.02392578125 2590.3349609375 2607.35693359375 2624.18798828125 2642.839111328125 2662.631103515625 2685.971923828125 2731.462890625 2733.864990234375 2759.035888671875 2790.237060546875 2819.319091796875 -9999 -9999 -9999 -9999 -9999 -9999 -9999 -9999 -9999 -9999 -9999 -9999 -9999 -9999 -9999 -9999 -9999 -9999 -9999 -9999 -9999 -9999 -9999 -9999 -9999 -9999 -9999 -9999
3147.93896484375 3131.090087890625 3116.720947265625 3102.152099609375 3093.282958984375 3078.693115234375 3056.343994140625 3040.735107421875 3023.43603515625 3006.507080078125 2992.2880859375 2985.72900390625 2975.468994140625 2952.4599609375 2938.69091796875 2924.701904296875 2908.532958984375 2890.593994140625 2871.22509765625 2849.825927734375 2828.756103515625 2819.177001953125 2802.2080078125 2785.09912109375 2779.85009765625 2766.291015625 2759.052001953125 2753.383056640625 2745.52294921875 2734.52392578125 2724.304931640625 2706.615966796875 2691.777099609375 2677.97802734375 2666.178955078125 2652.05908203125 2639.6298828125 2623.4609375 2607.552001953125 2584.5029296875 2570.573974609375 2572.764892578125 2558.216064453125 2545.01611328125 2517.366943359375 2501.55810546875 2487.299072265625 2481.469970703125 2473.281005859375 2459.152099609375 2438.123046875 2413.212890625 2397.10400390625 2391.875 2389.72607421875 2373.988037109375 2363.12890625 2339.4150390625 2327.93408203125 2321.053955078125 2311.698974609375 2300.76904296875 2292.40087890625 2283.221923828125 2276.968017578125 2269.89697265625 2266.906982421875 2262.927001953125 2264.971923828125 2266.22998046875 2276.81494140625 2296.821044921875 2292.612060546875 2282.992919921875 2271.612060546875 2249.760009765625 2243.72509765625 2239.89990234375 2237.72705078125 2238.219970703125 2252.4599609375 2244.924072265625 2227.15087890625 2206.26611328125 2191.43505859375 2173.26611328125 2195.075927734375 2180.617919921875 2162.89208984375 2162.820068359375 2136.491943359375 2140.451904296875 2115.89892578125 2109.29296875 2091.714111328125 2069.512939453125 2050.364990234375 2039.073974609375 2026.6839599609375 2010.927001953125 2000.77001953125 1984.9449462890625 1971.10400390625 1957.4329833984375 1927.85498046875 1912.97802734375 1895.821044921875 1880.906005859375 1864.6820068359375 1842.6240234375 1806.43505859375 1788.407958984375 1763.260986328125 1743.8389892578125 1725.14794921875 1710.0350341796875 1699.9300537109375 1690.3489990234375 1678.5489501953125 1669.406982421875 1661.5350341796875 1649.1419677734375 1638.9189453125 1628.6800537109375 1616.9410400390625 1632.344970703125 1640.14697265625 1653.092041015625 1667.676025390625 1671.343017578125 1675.5810546875 1680.7340087890625 1689.56103515625 1697.2080078125 1703.363037109375 1712.865966796875 1723.9150390625 1732.7490234375 1741.6080322265625 1751.875 1760.748046875 1767.9630126953125 1776.0469970703125 1786.27099609375 1799.6519775390625 1816.968994140625 1835.6290283203125 1856.6199951171875 1878.7149658203125 1899.5179443359375 1922.4169921875 1944.39404296875 1959.386962890625 1964.56005859375 1968.635986328125 1975.10302734375 1989.300048828125 2009.343994140625 2026.6839599609375 2044.68896484375 2060.47998046875 2071.837890625 2081.740966796875 2095.135986328125 2109.635009765625 2107.72900390625 2103.68505859375 2106.4619140625 2113.02099609375 2121.31103515625 2131.764892578125 2144.02099609375 2156.68994140625 2169.5380859375 2184.301025390625 2199.195068359375 2213.446044921875 2230.052001953125 2246.958984375 2263.87890625 2281.971923828125 2298.510009765625 2313.132080078125 2325.94091796875 2365.02587890625 2397.56298828125 2413.489990234375 2418.9580078125 2434.18310546875 2450.214111328125 2466.81494140625 2478.60693359375 2510.26806640625 2522.830078125 2541.15087890625 2556.112060546875 2559.303955078125 2572.804931640625 2595.27587890625 2614.568115234375 2632.589111328125 2651.75 2671.412109375 2691.173095703125 2712.093994140625 2757.156005859375 2762.947021484375 2791.387939453125 2829.330078125 -9999 -9999 -9999 -9999 -9999 -9999 -9999 -9999 -9999 -9999 -9999 -9999 -9999 -9999 -9999 -9999 -9999 -9999 -9999 -9999 -9999 -9999 -9999 -9999 -9999 -9999 -9999 -9999
3137.64990234375 3120.48095703125 3104.662109375 3091.173095703125 3080.884033203125 3065.323974609375 3050.7451171875 3033.055908203125 3014.826904296875 3000.89794921875 2984.708984375 2971.830078125 2961.160888671875 2949.02099609375 2937.822021484375 2924.383056640625 2910.843994140625 2894.114990234375 2879.2060546875 2876.51708984375 2869.777099609375 2860.47802734375 2832.489013671875 2833.39990234375 2815.7509765625 2803.77197265625 2779.282958984375 2767.27392578125 2756.9140625 2743.64501953125 2725.236083984375 2712.31689453125 2708.39794921875 2699.458984375 2688.639892578125 2666.7509765625 2651.631103515625 2643.281982421875 2628.673095703125 2607.583984375 2593.735107421875 2608.865966796875 2597.527099609375 2572.636962890625 2541.0380859375 2519.218994140625 2505.949951171875 2494.5810546875 2491.9619140625 2482.43310546875 2448.303955078125 2424.593994140625 2411.864990234375 2401.406005859375 2393.326904296875 2383.833984375 2360.97509765625 2342.529052734375 2325.093994140625 2316.27294921875 2306.797119140625 2299.614013671875 2285.591064453125 2278.471923828125 2271.780029296875 2264.342041015625 2253.5 2252.445068359375 2251.970947265625 2247.531982421875 2245.68994140625 2245.343017578125 2248.31298828125 2235.784912109375 2229.2880859375 2228.7080078125 2219.5830078125 2217.60595703125 2212.35205078125 2216.241943359375 2221.532958984375 2219.659912109375 2211.06689453125 2185.757080078125 2177.7890625 2150.846923828125 2147.23388671875 2133.740966796875 2133.0869140625 2142.662109375 2121.032958984375 2106.301025390625 2094.39111328125 2083.1669921875 2064.7119140625 2049.488037109375 2038.5570068359375 2022.39404296875 2006.3289794921875 1994.1109619140625 1983.3349609375 1971.97802734375 1953.22802734375 1936.5550537109375 1908.4649658203125 1895.68603515625 1881.4119873046875 1861.5340576171875 1842.488037109375 1823.47998046875 1790.761962890625 1769.2640380859375 1753.9520263671875 1734.39404296875 1714.824951171875 1702.47705078125 1693.1710205078125 1685.583984375 1674.0369873046875 1667.678955078125 1657 1648.8179931640625 1636.0560302734375 1625.5009765625 1616.9410400390625 1628.134033203125 1638.0159912109375 1657.324951171875 1668.998046875 1678.8360595703125 1679.93994140625 1686.9990234375 1691.0999755859375 1698.3709716796875 1705.1800537109375 1714.6199951171875 1724.3370361328125 1735.7900390625 1744.635009765625 1751.8389892578125 1761.5489501953125 1769.5780029296875 1779.363037109375 1790.364990234375 1801.883056640625 1819.1590576171875 1837.01904296875 1858.0889892578125 1880.2149658203125 1902.208984375 1924.7010498046875 1947.7490234375 1965.865966796875 1968.85302734375 1982.238037109375 1990.178955078125 2007.35595703125 2020.675048828125 2035.3289794921875 2051.4189453125 2064.097900390625 2080.278076171875 2093.553955078125 2099.5400390625 2093.968017578125 2093.422119140625 2098.35400390625 2103.408935546875 2110.715087890625 2120.783935546875 2133.4130859375 2144.298095703125 2156.930908203125 2170.6259765625 2185.123046875 2200.341064453125 2216.787109375 2230.888916015625 2250.362060546875 2267.968994140625 2286.217041015625 2304.52294921875 2324.695068359375 2342.739013671875 2373.134033203125 2405.904052734375 2437.636962890625 2440.636962890625 2456.0439453125 2472.294921875 2485.967041015625 2496.778076171875 2517.819091796875 2542.90087890625 2554.741943359375 2571.85302734375 2575.5849609375 2581.72607421875 2603.447021484375 2625.0791015625 2644.199951171875 2664.89111328125 2681.972900390625 2698.43408203125 2720.2548828125 2741.76708984375 2764.318115234375 2787.658935546875 2818.220947265625 -9999 -9999 -9999 -9999 -9999 -9999 -9999 -9999 -9999 -9999 -9999 -9999 -9999 -9999 -9999 -9999 -9999 -9999 -9999 -9999 -9999 -9999 -9999 -9999 -9999 -9999 -9999 -9999
3134.3310546875 3116.511962890625 3099.593017578125 3083.3740234375 3067.215087890625 3053.375 3038.81591796875 3024.156982421875 3011.077880859375 2998.09912109375 2984.75 2970.73095703125 2955.802001953125 2945.072021484375 2933.822998046875 2922.75390625 2913.64501953125 2913.305908203125 2921.757080078125 2923.01806640625 2910.818115234375 2882.14892578125 2858.830078125 2839.881103515625 2819.701904296875 2807.10302734375 2795.803955078125 2788.52490234375 2771.215087890625 2762.656005859375 2738.537109375 2729.157958984375 2722.14892578125 2719.75 2708.89111328125 2700.39208984375 2685.7919921875 2670.262939453125 2657.2939453125 2636.534912109375 2625.5859375 2622.64697265625 2618.077880859375 2607.837890625 2575.9990234375 2538.449951171875 2518.77099609375 2511.73193359375 2499.373046875 2484.73388671875 2474.074951171875 2450.175048828125 2421.426025390625 2405.89697265625 2393.818115234375 2386.157958984375 2368.875 2353.251953125 2333.7880859375 2319.344970703125 2302.597900390625 2295.64404296875 2283.51806640625 2270.552978515625 2262.9619140625 2255.9140625 2249.306884765625 2246.593017578125 2238.116943359375 2232.52001953125 2225.330078125 2221.2119140625 2228.677001953125 2221.739013671875 2203.037109375 2198.9130859375 2192.680908203125 2192.678955078125 2184.10205078125 2189.06005859375 2194 2182.327880859375 2191.493896484375 2164.22802734375 2152.139892578125 2129.614990234375 2118.8369140625 2110.51611328125 2102.342041015625 2108.12890625 2104.031005859375 2091.486083984375 2073.93505859375 2068.7919921875 2050.073974609375 2032.6839599609375 2019.260986328125 2005.75 1993.6939697265625 1974.8470458984375 1961.0570068359375 1941.949951171875 1923.8680419921875 1906.550048828125 1890.489013671875 1876.4599609375 1865.906005859375 1844.6810302734375 1815.362060546875 1797.8719482421875 1770.303955078125 1752.0179443359375 1735.9429931640625 1720.9549560546875 1703.81201171875 1688.02001953125 1669.8790283203125 1664.3310546875 1666.072998046875 1666.0369873046875 1656.676025390625 1645.2550048828125 1635.1700439453125 1626.137939453125 1607.2669677734375 1622.1929931640625 1638.0140380859375 1660.636962890625 1673.9510498046875 1680.9449462890625 1684.77099609375 1686.333984375 1691.2030029296875 1697.60205078125 1706.10302734375 1719.343017578125 1733.3399658203125 1739.9169921875 1747.779052734375 1756.7939453125 1763.375 1773.8289794921875 1785.0150146484375 1796.583984375 1808.3590087890625 1822.530029296875 1839.593017578125 1858.154052734375 1878.3170166015625 1901.053955078125 1921.7669677734375 1944.1390380859375 1967.0269775390625 1985.60205078125 1985.0679931640625 1990.8909912109375 2006.5770263671875 2026.0250244140625 2041.1839599609375 2055.9169921875 2068.30908203125 2083.8310546875 2092.5400390625 2087.64208984375 2085.279052734375 2091.135009765625 2097.033935546875 2103.010986328125 2110.3310546875 2119.080078125 2129.091064453125 2140.696044921875 2154.98388671875 2168.2548828125 2184.787109375 2200.56201171875 2218.047119140625 2235.971923828125 2254.1669921875 2272.43896484375 2292.02099609375 2308.181884765625 2328.055908203125 2348.52587890625 2374.069091796875 2395.112060546875 2425.572021484375 2459.181884765625 2479.534912109375 2508.466064453125 2522.01806640625 2522.819091796875 2538.179931640625 2547.302001953125 2575.153076171875 2588.47412109375 2592.916015625 2600.576904296875 2617.508056640625 2643.0400390625 2661.2509765625 2678.6220703125 2697.174072265625 2713.794921875 2728.64599609375 2747.837890625 2769.4189453125 2806.030029296875 2816.172119140625 2857.923095703125 -9999 -9999 -9999 -9999 -9999 -9999 -9999 -9999 -9999 -9999 -9999 -9999 -9999 -9999 -9999 -9999 -9999 -9999 -9999 -9999 -9999 -9999 -9999 -9999 -9999 -9999 -9999
3130.241943359375 3113.883056640625 3098.174072265625 3081.955078125 3067.14599609375 3051.506103515625 3035.987060546875 3022.508056640625 3009.718994140625 2997.5 2987.700927734375 2975.931884765625 2962.98291015625 2947.383056640625 2934.5439453125 2926.534912109375 2923.756103515625 2922.97705078125 2931.718017578125 2925.8291015625 2913.81005859375 2889.5400390625 2867.0810546875 2848.402099609375 2834.173095703125 2832.4140625 2833.31494140625 2814.916015625 2805.77587890625 2785.386962890625 2761.0380859375 2749.80908203125 2741.1201171875 2748.781005859375 2743.672119140625 2731.89306640625 2700.742919921875 2681.154052734375 2666.7451171875 2645.93603515625 2636.156982421875 2637.177978515625 2640.279052734375 2631.219970703125 2594.949951171875 2551.60107421875 2528.9619140625 2516.7529296875 2510.694091796875 2495.9951171875 2482.3359375 2469.906005859375 2439.576904296875 2417.177978515625 2395.839111328125 2382.137939453125 2366.264892578125 2355.285888671875 2341.68603515625 2324.6640625 2308.0029296875 2291.989990234375 2285.136962890625 2275.998046875 2251.908935546875 2246.39990234375 2238.0810546875 2233.446044921875 2220.498046875 2213.659912109375 2207.740966796875 2196.705078125 2183.27294921875 2175.700927734375 2182.0859375 2175.092041015625 2173.0048828125 2163.323974609375 2162.367919921875 2159.43603515625 2165.010009765625 2157.962890625 2164.833984375 2148.763916015625 2129.302001953125 2111.986083984375 2098.1240234375 2088.9990234375 2080.863037109375 2072.93701171875 2069.802978515625 2061.43798828125 2054.162109375 2049.262939453125 2035.1510009765625 2020.10205078125 2004.280029296875 1987.81005859375 1976.3590087890625 1965.3819580078125 1947.81103515625 1929.8050537109375 1910.9959716796875 1887.47802734375 1871.8719482421875 1845.7230224609375 1826.094970703125 1826.384033203125 1794.626953125 1772.927978515625 1751.6639404296875 1734.6820068359375 1718.010009765625 1702.6009521484375 1687.1009521484375 1668.8360595703125 1658.9100341796875 1660.031005859375 1664.7020263671875 1660.238037109375 1652.594970703125 1641.52099609375 1629.2230224609375 1624.0439453125 1605.258056640625 1615.6500244140625 1633.3330078125 1656.64794921875 1681.447998046875 1684.2769775390625 1681.2459716796875 1683.7769775390625 1688.10595703125 1695.3759765625 1708.595947265625 1729.27001953125 1736.9510498046875 1743.126953125 1750.8179931640625 1755.8780517578125 1767.3409423828125 1776.7509765625 1786.5989990234375 1799.4599609375 1814.625 1828.011962890625 1843.5810546875 1862.35302734375 1881.635986328125 1901.7220458984375 1922.5660400390625 1943.7060546875 1965.1209716796875 1988.968994140625 2002.2080078125 2002.301025390625 2010.0980224609375 2023.748046875 2037.9010009765625 2055.27587890625 2072.698974609375 2081.6669921875 2081.40087890625 2079.37109375 2086.239990234375 2092.26708984375 2096.12890625 2101.404052734375 2108.2890625 2116.125 2124.31689453125 2142.669921875 2160.09912109375 2171.9990234375 2186.27099609375 2205.2958984375 2223.31103515625 2242.56201171875 2259.322998046875 2275.574951171875 2297.653076171875 2318.174072265625 2340.06396484375 2353.822021484375 2376.02294921875 2399.876953125 2427.1259765625 2442.98291015625 2468.39599609375 2504.85693359375 2528.468994140625 2546.919921875 2560.5810546875 2572.262939453125 2584.993896484375 2596.385009765625 2599.9169921875 2620.577880859375 2634.958984375 2670.14111328125 2682.751953125 2703.623046875 2722.22509765625 2735.93603515625 2749.406982421875 2760.80908203125 2779.919921875 2814.881103515625 2834.943115234375 2861.404052734375 -9999 -9999 -9999 -9999 -9999 -9999 -9999 -9999 -9999 -9999 -9999 -9999 -9999 -9999 -9999 -9999 -9999 -9999 -9999 -9999 -9999 -9999 -9999 -9999 -9999 -9999 -9999
3130.302978515625 3115.2041015625 3099.60498046875 3085.166015625 3073.136962890625 3070.7880859375 3050.278076171875 3032.368896484375 3023.429931640625 3008.541015625 2995.251953125 2983.343017578125 2970.093994140625 2955.783935546875 2946.385009765625 2940.3359375 2937.346923828125 2938.447998046875 2941.89892578125 2933.35009765625 2918.81103515625 2897.40087890625 2872.39208984375 2860.4130859375 2838.214111328125 2836.135009765625 2841.72607421875 2827.97705078125 2812.1669921875 2801.947998046875 2783.569091796875 2772.5 2769.381103515625 2749.9619140625 2740.43310546875 2728.214111328125 2709.424072265625 2690.675048828125 2682.656005859375 2668.866943359375 2654.677978515625 2652.3291015625 2650.6201171875 2636.041015625 2596.85107421875 2568.58203125 2537.9130859375 2526.964111328125 2518.594970703125 2505.676025390625 2494.85693359375 2476.096923828125 2462.18798828125 2450.198974609375 2410.989990234375 2381.587890625 2362.256103515625 2344.64404296875 2331.22412109375 2319.590087890625 2303.22705078125 2288.1220703125 2275.8779296875 2259.178955078125 2241.9619140625 2237.655029296875 2226.27392578125 2213.81591796875 2207.541015625 2195.805908203125 2188.616943359375 2182.47998046875 2169.322998046875 2159.549072265625 2161.218994140625 2158.35400390625 2153.970947265625 2147.72802734375 2142.906005859375 2137.4150390625 2134.9130859375 2126.179931640625 2119.7890625 2114.487060546875 2098.592041015625 2098.01806640625 2076.87890625 2070.9609375 2060.507080078125 2053.7509765625 2047.5159912109375 2041.541015625 2034.4940185546875 2029.7330322265625 2019.4739990234375 2004.258056640625 1989.072998046875 1970.3270263671875 1954.3380126953125 1941.2669677734375 1925.22900390625 1915.3380126953125 1894.8399658203125 1873.9189453125 1857.77294921875 1839.030029296875 1818.739013671875 1788.447998046875 1770.135986328125 1749.759033203125 1732.5999755859375 1714.02001953125 1698.8509521484375 1683.9840087890625 1672.27001953125 1657.2220458984375 1651.862060546875 1650.4189453125 1658.6510009765625 1649.2640380859375 1649.1529541015625 1640.0679931640625 1630.572021484375 1612.64697265625 1591.5360107421875 1602.8070068359375 1622.7220458984375 1639.3929443359375 1674.89794921875 1680.864013671875 1676.8890380859375 1682.8380126953125 1685.23095703125 1695.9659423828125 1711.573974609375 1729.4239501953125 1740.0660400390625 1744.5770263671875 1749.89697265625 1757.3199462890625 1767.9229736328125 1775.6319580078125 1787.3699951171875 1798.9210205078125 1814.2039794921875 1829.5250244140625 1843.916015625 1862.06396484375 1881.35400390625 1901.4110107421875 1922.115966796875 1943.3170166015625 1964.9139404296875 1987.364990234375 2010.0660400390625 2013.1099853515625 2017.39599609375 2028.4029541015625 2041.6090087890625 2058.2099609375 2070.071044921875 2074.138916015625 2075.35302734375 2083.137939453125 2086.73095703125 2091.737060546875 2095.611083984375 2099.85205078125 2104.2900390625 2113.81689453125 2131.425048828125 2150.925048828125 2172.215087890625 2192.047119140625 2205.1630859375 2228.469970703125 2239.47412109375 2253.843017578125 2273.06103515625 2291.008056640625 2305.430908203125 2335.531005859375 2355.0830078125 2373.85107421875 2387.489990234375 2405.342041015625 2440.388916015625 2458.2060546875 2477.846923828125 2496.988037109375 2527.22998046875 2545.9208984375 2568.162109375 2581.993896484375 2595.784912109375 2603.01611328125 2610.91796875 2639.01904296875 2656.360107421875 2675.1220703125 2700.79296875 2709.194091796875 2725.2958984375 2757.81689453125 2774.238037109375 2780.760009765625 2803.2109375 2815.322021484375 2861.75390625 2867.114990234375 -9999 -9999 -9999 -9999 -9999 -9999 -9999 -9999 -9999 -9999 -9999 -9999 -9999 -9999 -9999 -9999 -9999 -9999 -9999 -9999 -9999 -9999 -9999 -9999 -9999 -9999 -9999
3132.364013671875 3118.8349609375 3105.52587890625 3094.47705078125 3106.0380859375 3101.30908203125 3089.5390625 3063.260009765625 3054.48095703125 3043.451904296875 3024.10302734375 3006.634033203125 2995.885009765625 2988.85498046875 2976.97607421875 2963.366943359375 2959.41796875 2956.6689453125 2947.969970703125 2930.041015625 2913.8720703125 2893.261962890625 2871.032958984375 2860.533935546875 2852.22509765625 2842.56591796875 2835.60693359375 2828.76806640625 2818.72900390625 2815.6689453125 2807.3701171875 2783.160888671875 2760.362060546875 2743.943115234375 2733.50390625 2710.4150390625 2691.89501953125 2672.666015625 2660.287109375 2649.577880859375 2655.80908203125 2651.280029296875 2644.31103515625 2623.471923828125 2601.35205078125 2577.6630859375 2558.6240234375 2542.614990234375 2529.52587890625 2523.027099609375 2503.8779296875 2488.84912109375 2469.928955078125 2440.409912109375 2414.111083984375 2393.153076171875 2376.72509765625 2356.14794921875 2337.446044921875 2317.718017578125 2296.18505859375 2280.27001953125 2269.14306640625 2252.382080078125 2237.330078125 2226.3701171875 2221.512939453125 2202.35498046875 2194.73291015625 2183.764892578125 2173.6201171875 2164.318115234375 2159.013916015625 2150.462890625 2144.389892578125 2141.68994140625 2137.1689453125 2134.34912109375 2125.451904296875 2117.136962890625 2115.470947265625 2102.87109375 2097.08203125 2087.14208984375 2077.674072265625 2065.180908203125 2056.73388671875 2049.98193359375 2041.343994140625 2034.1419677734375 2027.5469970703125 2021.988037109375 2014.8800048828125 2011.4859619140625 2004.4019775390625 1988.5260009765625 1972.06396484375 1957.5699462890625 1939.8699951171875 1923.2440185546875 1910.7469482421875 1897.927001953125 1880.2330322265625 1861.7659912109375 1841.4119873046875 1824.8170166015625 1800.3289794921875 1773.8480224609375 1756.968994140625 1737.3709716796875 1719.35400390625 1701.7540283203125 1684.573974609375 1668.718017578125 1656.885009765625 1645.280029296875 1638.7349853515625 1637.2359619140625 1638.2989501953125 1638.1300048828125 1642.7320556640625 1638.3489990234375 1626.10595703125 1611.208984375 1590.2900390625 1586.7159423828125 1617.43603515625 1626.9129638671875 1639.1629638671875 1666.7430419921875 1675.2469482421875 1678.0009765625 1682.4139404296875 1694.739013671875 1710.041015625 1722.991943359375 1736.720947265625 1744.656982421875 1752.6510009765625 1758.3680419921875 1765.7459716796875 1774.3260498046875 1784.0980224609375 1794.7010498046875 1808.52001953125 1824.863037109375 1843.530029296875 1863.7239990234375 1883.7740478515625 1902.8599853515625 1922.633056640625 1942.4749755859375 1963.06494140625 1986.3409423828125 2007.47900390625 2018.5689697265625 2028.4449462890625 2031.2889404296875 2042.886962890625 2052.93896484375 2062.337890625 2068.635009765625 2074.927978515625 2080.125 2086.18994140625 2089.866943359375 2097.56689453125 2107.4609375 2113.2548828125 2124.363037109375 2139.9150390625 2161.013916015625 2185.24609375 2210.200927734375 2226.487060546875 2254.6298828125 2266.44189453125 2275.1708984375 2320.85498046875 2306.364013671875 2325.822021484375 2351.114013671875 2383.85888671875 2405.634033203125 2411.35791015625 2433.48388671875 2460.9541015625 2483.784912109375 2486.7880859375 2510.799072265625 2555.041015625 2566.7119140625 2581.202880859375 2598.824951171875 2608.236083984375 2614.01708984375 2626.368896484375 2648.10009765625 2671.381103515625 2692.633056640625 2709.194091796875 2730.695068359375 2746.547119140625 2756.048095703125 2777.759033203125 2800.410888671875 2819.39208984375 2843.952880859375 2884.324951171875 2888.365966796875 -9999 -9999 -9999 -9999 -9999 -9999 -9999 -9999 -9999 -9999 -9999 -9999 -9999 -9999 -9999 -9999 -9999 -9999 -9999 -9999 -9999 -9999 -9999 -9999 -9999 -9999 -9999
3138.074951171875 3126.8359375 3116.697021484375 3111.91796875 3131.7890625 3138.030029296875 3123.969970703125 3096.15087890625 3085.7119140625 3072.39306640625 3063.444091796875 3045.625 3030.35595703125 3029.376953125 3014.346923828125 2999.89794921875 2979.839111328125 2961.6201171875 2947.071044921875 2929.052001953125 2911.722900390625 2898.403076171875 2881.674072265625 2859.905029296875 2850.49609375 2844.72705078125 2835.968017578125 2823.989013671875 2816.22998046875 2800.580078125 2786.010986328125 2763.81201171875 2747.693115234375 2733.743896484375 2723.955078125 2694.906005859375 2674.297119140625 2655.777099609375 2640.818115234375 2628.658935546875 2624.739990234375 2623.40087890625 2625.06201171875 2623.443115234375 2615.712890625 2600.583984375 2579.864990234375 2559.615966796875 2544.576904296875 2529.60791015625 2507.9990234375 2491.75 2469.8798828125 2446.450927734375 2424.64208984375 2407.52490234375 2388.964111328125 2371.614990234375 2346.777099609375 2322.594970703125 2297.992919921875 2272.073974609375 2258.903076171875 2252.51904296875 2240.491943359375 2230.302001953125 2214.6669921875 2204.677001953125 2184.904052734375 2176.79296875 2163.8798828125 2153.465087890625 2143.81201171875 2137.875 2131.429931640625 2125.032958984375 2124.0419921875 2124.969970703125 2110.6708984375 2095.44189453125 2091.672119140625 2081.06298828125 2073.743896484375 2064.48193359375 2052 2046.0860595703125 2036.3819580078125 2031.8170166015625 2022.31494140625 2016.06494140625 2008.72705078125 2003.51904296875 1995.197021484375 1993.448974609375 1988.4659423828125 1974.6409912109375 1958.071044921875 1941.5980224609375 1926.0369873046875 1911.428955078125 1892.031005859375 1878.31103515625 1869.6710205078125 1850.1319580078125 1827.8809814453125 1809.3489990234375 1787.39794921875 1767.4639892578125 1748.16796875 1725.616943359375 1710.0989990234375 1694.072021484375 1676.0360107421875 1659.3070068359375 1644.154052734375 1635.7879638671875 1632.425048828125 1630.491943359375 1631.5660400390625 1634.1209716796875 1638.47802734375 1629.2230224609375 1621.751953125 1604.052001953125 1579.0660400390625 1593.1240234375 1609.66796875 1618.31103515625 1627.3990478515625 1640.613037109375 1664.1700439453125 1656.1689453125 1661.012939453125 1682.2080078125 1698.43896484375 1711.636962890625 1728.990966796875 1741.3900146484375 1746.883056640625 1756.123046875 1767.595947265625 1774.4549560546875 1783.9930419921875 1794.991943359375 1810.3349609375 1825.7459716796875 1842.4429931640625 1861.050048828125 1881.6510009765625 1900.6650390625 1919.1209716796875 1938.4219970703125 1958.9510498046875 1979.501953125 1999.9959716796875 2013.4320068359375 2034.2850341796875 2045.386962890625 2047.7139892578125 2056.444091796875 2065.0810546875 2072.15087890625 2079.512939453125 2087.98388671875 2096.93994140625 2104.22607421875 2107.376953125 2114.22607421875 2119.261962890625 2129.443115234375 2150.2490234375 2171.95703125 2194.219970703125 2219.8720703125 2263.577880859375 2275.01904296875 2291.802978515625 2300.01611328125 2328.9140625 2333.112060546875 2339.197998046875 2357.905029296875 2384.096923828125 2416.8798828125 2441.9208984375 2452.337890625 2465.027099609375 2498.041015625 2505.1689453125 2533.260986328125 2556.152099609375 2603.972900390625 2606.094970703125 2626.416015625 2629.866943359375 2637.34912109375 2645.699951171875 2661.62109375 2682.992919921875 2705.35400390625 2725.47509765625 2758.1669921875 2766.577880859375 2773.708984375 2787.52099609375 2809.48193359375 2832.552978515625 2861.294921875 2873.946044921875 -9999 -9999 -9999 -9999 -9999 -9999 -9999 -9999 -9999 -9999 -9999 -9999 -9999 -9999 -9999 -9999 -9999 -9999 -9999 -9999 -9999 -9999 -9999 -9999 -9999 -9999 -9999 -9999
3145.39599609375 3137.096923828125 3130.528076171875 3137.549072265625 3149.489990234375 3156.87109375 3131.821044921875 3116.221923828125 3128.633056640625 3112.093994140625 3096.955078125 3084.966064453125 3072.757080078125 3053.597900390625 3052.577880859375 3016.158935546875 3007.280029296875 3010.56103515625 2969.662109375 2939.202880859375 2922.22412109375 2903.154052734375 2882.074951171875 2859.156005859375 2844.64697265625 2833.2880859375 2825.198974609375 2816.760009765625 2801.341064453125 2786.910888671875 2766.251953125 2750.363037109375 2735.743896484375 2718.114990234375 2701.60595703125 2685.2470703125 2662.0380859375 2644.05810546875 2627.89892578125 2614.10009765625 2609.551025390625 2599.56201171875 2600.68310546875 2604.56396484375 2604.074951171875 2603.594970703125 2594.115966796875 2572.677001953125 2550.8779296875 2538.408935546875 2521.77001953125 2496.861083984375 2474.842041015625 2454.912109375 2438.2529296875 2421.76806640625 2405.847900390625 2378.60791015625 2352.72509765625 2327.0859375 2297.778076171875 2275.06103515625 2255.81494140625 2243.384033203125 2235.98193359375 2225.1240234375 2211.3701171875 2197.10498046875 2180.012939453125 2164.345947265625 2158.43603515625 2144.574951171875 2131.97802734375 2124.31494140625 2117.39208984375 2118.9619140625 2106.702880859375 2096.25 2092.4599609375 2078.47705078125 2067.283935546875 2060.153076171875 2054.110107421875 2044.5350341796875 2035.8489990234375 2025.3709716796875 2018.958984375 2011.9840087890625 2006.5980224609375 1999.012939453125 1992.426025390625 1985.6519775390625 1978.987060546875 1977.0789794921875 1972.3060302734375 1964.2889404296875 1943.884033203125 1927.1240234375 1911.5059814453125 1895.93798828125 1879.875 1863.115966796875 1848.06103515625 1831.5150146484375 1816.4759521484375 1796.300048828125 1776 1759.3790283203125 1741.66796875 1716.780029296875 1699.322998046875 1685.93896484375 1670.5050048828125 1656.10400390625 1641.9010009765625 1633.9840087890625 1628.8990478515625 1625.594970703125 1632.3800048828125 1632.552978515625 1628.31396484375 1620.2349853515625 1613.2230224609375 1601.4610595703125 1579.0660400390625 1579.1739501953125 1606.199951171875 1611.218017578125 1617.68603515625 1625.89599609375 1633.81103515625 1651.18798828125 1649.1300048828125 1662.97802734375 1694.43701171875 1707.241943359375 1715.18701171875 1730.218994140625 1739.6280517578125 1753.3740234375 1762.2840576171875 1771.448974609375 1782.6300048828125 1797.864013671875 1811.5560302734375 1825.89599609375 1842.802978515625 1861.7239990234375 1879.947998046875 1898.0030517578125 1916.7080078125 1935.6739501953125 1955.9739990234375 1976.10302734375 1995.6280517578125 2009.2650146484375 2031.6689453125 2053.387939453125 2061.802978515625 2064.7880859375 2069.60498046875 2079.825927734375 2089.72998046875 2091.89599609375 2095.447021484375 2098.572998046875 2108.291015625 2120.468017578125 2131.794921875 2142.01904296875 2168.64208984375 2197.884033203125 2207.76904296875 2244.657958984375 2295.862060546875 2302.676025390625 2313.44091796875 2327.512939453125 2355.512939453125 2367.864990234375 2363.85888671875 2372.445068359375 2393.9560546875 2423.693115234375 2467.48193359375 2493.39697265625 2489.75 2497.22412109375 2521.090087890625 2539.44189453125 2563.633056640625 2616.093994140625 2637.946044921875 2666.9970703125 2668.258056640625 2668.429931640625 2669.0810546875 2676.85205078125 2694.73388671875 2716.425048828125 2739.635986328125 2765.008056640625 2792.509033203125 2803.360107421875 2809.612060546875 2822.032958984375 2847.533935546875 -9999 -9999 -9999 -9999 -9999 -9999 -9999 -9999 -9999 -9999 -9999 -9999 -9999 -9999 -9999 -9999 -9999 -9999 -9999 -9999 -9999 -9999 -9999 -9999 -9999 -9999 -9999 -9999 -9999 -9999
3152.47705078125 3146.18798828125 3144.4189453125 3158.590087890625 3162.64111328125 3135.922119140625 3096.7919921875 3090.943115234375 3106.73388671875 3101.875 3093.5458984375 3086.297119140625 3084.177978515625 3092.39794921875 3081.72900390625 3040.969970703125 3045.430908203125 2993.181884765625 2967.282958984375 2958.2939453125 2940.405029296875 2915.14501953125 2874.426025390625 2852.60693359375 2833.677978515625 2818.2890625 2808.75 2797.0009765625 2782.06201171875 2764.83203125 2751.012939453125 2735.72412109375 2722.205078125 2710.35595703125 2688.527099609375 2670.617919921875 2652.80908203125 2634.27001953125 2618.780029296875 2609.740966796875 2603.701904296875 2596.35302734375 2590.48388671875 2581.715087890625 2576.5458984375 2580.376953125 2580.596923828125 2570.988037109375 2556.448974609375 2538.6298828125 2527.1708984375 2504.4619140625 2485.48291015625 2470.783935546875 2463.97509765625 2440.216064453125 2402.931884765625 2377.656982421875 2352.509033203125 2329.873046875 2304.10302734375 2283.4990234375 2265.735107421875 2256.72900390625 2242.802001953125 2223.47705078125 2207.845947265625 2194.513916015625 2183.451904296875 2169.35107421875 2146.487060546875 2132.989013671875 2123.64404296875 2111.843017578125 2103.175048828125 2098.0390625 2089.572998046875 2076.888916015625 2064.572021484375 2063.7890625 2049.68310546875 2040.491943359375 2032.5260009765625 2024.509033203125 2015.802001953125 2007.240966796875 1999.6300048828125 1992.404052734375 1989.303955078125 1982.4840087890625 1976.5389404296875 1969.0360107421875 1962.31103515625 1960.133056640625 1955.14501953125 1949.8179931640625 1937.7159423828125 1916.114013671875 1899.7080078125 1887.1949462890625 1869.1629638671875 1852.93896484375 1835.0589599609375 1819.5880126953125 1802.0030517578125 1786.02294921875 1766.5849609375 1747.4859619140625 1727.81396484375 1709.6300048828125 1692.4000244140625 1676.2750244140625 1663.68994140625 1651.64697265625 1640.3690185546875 1632.550048828125 1626.4940185546875 1621.3570556640625 1618.116943359375 1618.81201171875 1616.885009765625 1614.383056640625 1608.27294921875 1597.76904296875 1576.2139892578125 1571.321044921875 1600.782958984375 1607.279052734375 1612.8160400390625 1620.72900390625 1627.6719970703125 1635.501953125 1642.3360595703125 1653.0699462890625 1664.6810302734375 1690.4339599609375 1703.31201171875 1719.7430419921875 1734.623046875 1748.18505859375 1763.322021484375 1774.8990478515625 1784.737060546875 1799.22802734375 1812.0379638671875 1825.02197265625 1840.6800537109375 1861.447021484375 1881.2889404296875 1902.3929443359375 1922.75 1943.4940185546875 1964.76904296875 1985.260009765625 2005.5469970703125 2018.8289794921875 2035.751953125 2048.8310546875 2064.655029296875 2068.577880859375 2070.778076171875 2078.778076171875 2081.6201171875 2085.35693359375 2089.530029296875 2097.93994140625 2111.743896484375 2127.465087890625 2143.35205078125 2155.9951171875 2183.97509765625 2208.573974609375 2235.534912109375 2252.27587890625 2287.284912109375 2318.721923828125 2335.19091796875 2349.02197265625 2369.14599609375 2392.777099609375 2390.5390625 2391.885009765625 2410.0859375 2438.950927734375 2470.9990234375 2486.89794921875 2502.27099609375 2516.717041015625 2533.2109375 2541.843017578125 2555.964111328125 2572.425048828125 2613.487060546875 2648.55810546875 2682.908935546875 2690.37109375 2692.491943359375 2697.29296875 2709.804931640625 2725.075927734375 2746.26708984375 2768.549072265625 2801.320068359375 2821.381103515625 2835.242919921875 2840.134033203125 2863.22509765625 -9999 -9999 -9999 -9999 -9999 -9999 -9999 -9999 -9999 -9999 -9999 -9999 -9999 -9999 -9999 -9999 -9999 -9999 -9999 -9999 -9999 -9999 -9999 -9999 -9999 -9999 -9999 -9999 -9999 -9999
3160.947998046875 3153.47900390625 3149.06005859375 3148.180908203125 3127.251953125 3098.162109375 3073.722900390625 3060.083984375 3064.14501953125 3068.446044921875 3074.366943359375 3062.14794921875 3054.299072265625 3061.009033203125 3061.169921875 3034.841064453125 3015.48193359375 3004.952880859375 2991.674072265625 2974.715087890625 2954.325927734375 2921.156005859375 2871.95703125 2847.798095703125 2832.0791015625 2805.7900390625 2786.02099609375 2775.2119140625 2760.54296875 2749.23388671875 2736.48388671875 2722.054931640625 2706.9560546875 2698.197021484375 2683.9580078125 2658.6689453125 2644.2099609375 2631.0810546875 2618.4208984375 2608.531982421875 2600.0830078125 2597.9541015625 2581.534912109375 2563.535888671875 2565.027099609375 2559.64794921875 2557.408935546875 2562.51904296875 2557.56005859375 2545.051025390625 2533.721923828125 2517.52294921875 2512.763916015625 2486.89501953125 2465.52587890625 2436.992919921875 2398.39697265625 2371.654052734375 2348.14501953125 2328.612060546875 2313.199951171875 2291.175048828125 2272.169921875 2261.748046875 2252.944091796875 2227.77490234375 2206.508056640625 2193.77294921875 2181.590087890625 2166.16796875 2148.800048828125 2128.281005859375 2112.9140625 2101.916015625 2095.85009765625 2084.27001953125 2072.076904296875 2055.81591796875 2043.5810546875 2033.115966796875 2030.1810302734375 2024.677978515625 2014.56396484375 2007.4000244140625 1998.1390380859375 1989.8179931640625 1982.4439697265625 1975.0179443359375 1971.9580078125 1965.6719970703125 1960.489013671875 1954.364990234375 1947.2559814453125 1941.3929443359375 1937.219970703125 1932.2120361328125 1928.3360595703125 1915.928955078125 1894.1290283203125 1880.550048828125 1864.97705078125 1847.7320556640625 1832.2889404296875 1810.7550048828125 1794.739990234375 1776.0970458984375 1757.56396484375 1738.571044921875 1721.0269775390625 1703.654052734375 1686.06005859375 1669.904052734375 1657.35400390625 1647.801025390625 1635.5989990234375 1627.8299560546875 1620.97900390625 1615.532958984375 1610.823974609375 1605.083984375 1601.7459716796875 1604.385009765625 1596.0460205078125 1587.3709716796875 1558.5009765625 1589.759033203125 1598.5989990234375 1606.031005859375 1612.3050537109375 1618.2139892578125 1625.18701171875 1632.77001953125 1637.958984375 1643.7039794921875 1653.72705078125 1666.803955078125 1683.032958984375 1699.8409423828125 1728.001953125 1749.3759765625 1762.75 1775.156982421875 1790.4439697265625 1800.72705078125 1814.041015625 1832.1610107421875 1846.7559814453125 1863.751953125 1884.6639404296875 1903.3330078125 1923.2640380859375 1944.0679931640625 1965.1429443359375 1986.498046875 2008.7239990234375 2017.6109619140625 2031.8509521484375 2049.708984375 2064.083984375 2073.612060546875 2078.52099609375 2081.09912109375 2082.01806640625 2085.4169921875 2098.967041015625 2112.60107421875 2125.14697265625 2138.85888671875 2152.65087890625 2169.652099609375 2180.041015625 2201.31298828125 2225.4619140625 2249.076904296875 2273.0458984375 2297.25 2319.823974609375 2347.22509765625 2369.180908203125 2388.18798828125 2406.64111328125 2420.028076171875 2427.89306640625 2447.677978515625 2461.362060546875 2472.4609375 2484.76904296875 2496.6298828125 2500.742919921875 2519.4541015625 2525.22509765625 2538.217041015625 2549.76806640625 2555.97900390625 2627.27099609375 2674.951904296875 2678.943115234375 2695.925048828125 2701.166015625 2723.876953125 2748.85888671875 2761.489990234375 2782.14111328125 2810.29296875 2831.553955078125 2852.18505859375 -9999 -9999 -9999 -9999 -9999 -9999 -9999 -9999 -9999 -9999 -9999 -9999 -9999 -9999 -9999 -9999 -9999 -9999 -9999 -9999 -9999 -9999 -9999 -9999 -9999 -9999 -9999 -9999 -9999 -9999 -9999
3170.339111328125 3149.81005859375 3131.660888671875 3116.39111328125 3089.02197265625 3081.43310546875 3062.694091796875 3036.465087890625 3037.166015625 3041.697021484375 3036.087890625 3035.1689453125 3029.30908203125 3038.570068359375 3020.160888671875 3004.431884765625 2985.452880859375 2963.073974609375 2966.10498046875 2933.486083984375 2894.886962890625 2878.886962890625 2848.718017578125 2832.8291015625 2809.02001953125 2795.571044921875 2780.02197265625 2754.722900390625 2740.763916015625 2727.715087890625 2717.97509765625 2702.575927734375 2690.906982421875 2676.35791015625 2665.4990234375 2656.570068359375 2639.111083984375 2624.281982421875 2617.43310546875 2595.572998046875 2589.18408203125 2585.364990234375 2572.35595703125 2564.81689453125 2553.278076171875 2542.12890625 2534.610107421875 2534.37109375 2530.221923828125 2531.531982421875 2536.73291015625 2514.884033203125 2496.965087890625 2471.555908203125 2450.70703125 2420.886962890625 2395.967041015625 2370.452880859375 2350.2509765625 2332.866943359375 2310.876953125 2293.19091796875 2276.64306640625 2268.376953125 2257.7529296875 2232.673095703125 2207.035888671875 2187.06103515625 2172.97705078125 2165.20703125 2145.60009765625 2130.62109375 2114.741943359375 2095.302001953125 2085.011962890625 2076.282958984375 2064.032958984375 2050.375 2032.4320068359375 2025.7650146484375 2016.9820556640625 2011.97998046875 2000.0350341796875 1990.5040283203125 1981.0989990234375 1973.1429443359375 1965.1600341796875 1958.7640380859375 1955.5140380859375 1949.261962890625 1942.81494140625 1936.5 1938.5009765625 1930.6290283203125 1922.5360107421875 1918.0069580078125 1910.7509765625 1911.990966796875 1897.22705078125 1871.39599609375 1854.467041015625 1840.43896484375 1822.803955078125 1808.18603515625 1790.3050537109375 1772.530029296875 1752.76904296875 1733.1629638671875 1714.4849853515625 1695.1619873046875 1678.4410400390625 1664.530029296875 1652.02001953125 1642.6199951171875 1632.676025390625 1626.56201171875 1620.4749755859375 1613.41796875 1607.76904296875 1601.4310302734375 1594.9599609375 1586.22705078125 1584.1199951171875 1568.594970703125 1551.7900390625 1589.0880126953125 1596.6939697265625 1603.6199951171875 1611.27001953125 1616.876953125 1623.114990234375 1630.303955078125 1634.0770263671875 1640.9659423828125 1648.991943359375 1657.9630126953125 1671.989990234375 1685.9620361328125 1718.0479736328125 1737.0389404296875 1757.5030517578125 1773.56005859375 1796.95703125 1807.56298828125 1818.7569580078125 1838.2960205078125 1858.0889892578125 1868.595947265625 1890.7869873046875 1911.925048828125 1926.886962890625 1942.22802734375 1962.2769775390625 1982.6810302734375 2002.886962890625 2010.178955078125 2024.052978515625 2039.218994140625 2056.487060546875 2068.23193359375 2077.9208984375 2084.7900390625 2093.615966796875 2104.277099609375 2117.60888671875 2129.7490234375 2142.422119140625 2153.6279296875 2167.319091796875 2179.617919921875 2195.40087890625 2210.052001953125 2222.404052734375 2244.97607421875 2273.986083984375 2296.1298828125 2317.528076171875 2342.9140625 2363.033935546875 2381.407958984375 2399.153076171875 2417.337890625 2429.4951171875 2440.39208984375 2445.52001953125 2451.705078125 2463.94091796875 2466.097900390625 2475.43408203125 2484.22509765625 2502.176025390625 2519.318115234375 2530.26904296875 2544.81005859375 2561.761962890625 2620.383056640625 2653.7041015625 2668.68603515625 2670.306884765625 2700.137939453125 2727.659912109375 2761.14111328125 2782.761962890625 2806.864013671875 2831.965087890625 2864.3359375 -9999 -9999 -9999 -9999 -9999 -9999 -9999 -9999 -9999 -9999 -9999 -9999 -9999 -9999 -9999 -9999 -9999 -9999 -9999 -9999 -9999 -9999 -9999 -9999 -9999 -9999 -9999 -9999 -9999 -9999 -9999
3136.239990234375 3128.06103515625 3102.051025390625 3075.322021484375 3065.212890625 3044.9541015625 3042.205078125 3014.31591796875 3011.326904296875 3014.008056640625 3013.80908203125 3010.799072265625 3007.5 2998.361083984375 2992.221923828125 2990.462890625 2965.14404296875 2940.385009765625 2921.99609375 2899.93701171875 2871.66796875 2849.077880859375 2831.618896484375 2809.85009765625 2793.39111328125 2776.33203125 2763.282958984375 2746.964111328125 2727.1650390625 2710.9560546875 2698.6669921875 2683.556884765625 2672.278076171875 2660.97900390625 2648.3701171875 2651.930908203125 2645.781982421875 2629.52294921875 2613.964111328125 2593.375 2585.2958984375 2576.7958984375 2573.8369140625 2564.39794921875 2543.51904296875 2524.909912109375 2514.87109375 2507.322021484375 2506.29296875 2503.22412109375 2512.485107421875 2516.294921875 2490.60595703125 2465.93701171875 2443.76806640625 2419.43505859375 2398.0810546875 2381.492919921875 2363.06103515625 2338.431884765625 2317.322021484375 2298.291015625 2285.131103515625 2275.469970703125 2256.60400390625 2231.02001953125 2208.864990234375 2191.23291015625 2176.3359375 2163.10302734375 2145.635009765625 2128.238037109375 2106.7041015625 2089.87109375 2079.6640625 2067.181884765625 2058.341064453125 2047.6240234375 2037.697021484375 2026.7969970703125 2016.404052734375 2004.946044921875 1991.6650390625 1979.2120361328125 1970.3719482421875 1960.3199462890625 1951.135986328125 1949.720947265625 1944.9429931640625 1935.8260498046875 1929.1259765625 1922.072021484375 1920.428955078125 1925.9310302734375 1921.5369873046875 1911.501953125 1905.0040283203125 1902.321044921875 1894.2879638671875 1872.3310546875 1847.4720458984375 1828.18994140625 1813.4410400390625 1798.2440185546875 1784.052978515625 1770.9520263671875 1753.0849609375 1732.3900146484375 1711.384033203125 1690.468994140625 1670.2080078125 1656.470947265625 1645.531005859375 1636.0269775390625 1628.552001953125 1623.2850341796875 1616.8740234375 1611.5799560546875 1606.2020263671875 1599.7449951171875 1592.489990234375 1579.9210205078125 1568.052001953125 1553.8800048828125 1551.7900390625 1587.43505859375 1592.614990234375 1602.1510009765625 1608.4620361328125 1614.947998046875 1620.9630126953125 1626.947998046875 1629.9549560546875 1635.9239501953125 1641.6409912109375 1648.2540283203125 1661.883056640625 1678.406005859375 1700.04296875 1728.7340087890625 1754.094970703125 1774.0140380859375 1805.5030517578125 1812.365966796875 1820.2490234375 1838.68505859375 1857.6590576171875 1878.7459716796875 1903.9310302734375 1919.135009765625 1934.7080078125 1947.1070556640625 1962.5400390625 1981.3809814453125 2002.93603515625 2015.7349853515625 2031.85595703125 2047.7060546875 2062.6201171875 2076.47607421875 2087.7919921875 2098.93603515625 2110.866943359375 2121.951904296875 2133.136962890625 2143.842041015625 2157.55810546875 2172.410888671875 2186.037109375 2197.574951171875 2211.27392578125 2222.2880859375 2242.489990234375 2253.801025390625 2266.487060546875 2289.43603515625 2312.708984375 2334.908935546875 2355.590087890625 2377.260986328125 2394.408935546875 2406.7529296875 2417.169921875 2423.618896484375 2427.87890625 2435.509033203125 2438.257080078125 2450.97412109375 2464.875 2479.736083984375 2495.41796875 2511.948974609375 2529.550048828125 2548.1220703125 2567.31298828125 2587.6240234375 2623.635986328125 2646.7470703125 2671.55810546875 2713.949951171875 2727.10107421875 2743.83203125 2771.93408203125 2793.014892578125 2828.5458984375 2871.47802734375 -9999 -9999 -9999 -9999 -9999 -9999 -9999 -9999 -9999 -9999 -9999 -9999 -9999 -9999 -9999 -9999 -9999 -9999 -9999 -9999 -9999 -9999 -9999 -9999 -9999 -9999 -9999 -9999 -9999 -9999 -9999
3114.550048828125 3103.910888671875 3066.931884765625 3041.383056640625 3028.6240234375 3023.405029296875 3002.916015625 2981.967041015625 2984.64794921875 2995.62890625 2999.958984375 2998.840087890625 2992.56103515625 2982.011962890625 2971.9130859375 2959.0439453125 2944.544921875 2917.756103515625 2906.406982421875 2884.80810546875 2862.157958984375 2839.55908203125 2818.929931640625 2797.6708984375 2778.302001953125 2761.60302734375 2748.634033203125 2733.735107421875 2717.2060546875 2700.007080078125 2681.05810546875 2666.9580078125 2653.10888671875 2640.570068359375 2629.760986328125 2632.922119140625 2638.072998046875 2631.8740234375 2615.534912109375 2595.805908203125 2585.4169921875 2575.3779296875 2559.367919921875 2545.658935546875 2526.64990234375 2509.89111328125 2502.531982421875 2494.653076171875 2485.4541015625 2481.955078125 2487.31591796875 2504.70703125 2499.97802734375 2477.72900390625 2450.47900390625 2424.571044921875 2402.259033203125 2386.529052734375 2370.89892578125 2348.04296875 2327.862060546875 2311.60009765625 2297.862060546875 2279.330078125 2255.56298828125 2234.4970703125 2213.887939453125 2194.1279296875 2180.3349609375 2167.197998046875 2152.3369140625 2130.902099609375 2113.172119140625 2096.55810546875 2080.302978515625 2066.501953125 2055.824951171875 2047.406982421875 2037.154052734375 2027.1280517578125 2017.14794921875 2006.4439697265625 1994.821044921875 1979.511962890625 1965.780029296875 1956.449951171875 1947.5 1939.344970703125 1933.9659423828125 1924.7569580078125 1918.47998046875 1912.6619873046875 1905.0889892578125 1906.22802734375 1912.20703125 1913.2430419921875 1903.8280029296875 1894.29296875 1883.7969970703125 1868.1689453125 1849.10498046875 1826.4329833984375 1809.2860107421875 1792.7960205078125 1776.279052734375 1759.76904296875 1740.7239990234375 1725.822021484375 1705.072021484375 1684.7779541015625 1664.9100341796875 1645.740966796875 1633.7099609375 1628.39697265625 1622.5999755859375 1614.97998046875 1609.135009765625 1606.6669921875 1605.259033203125 1600.2989501953125 1593.365966796875 1583.6689453125 1566.011962890625 1538.6180419921875 1558.031982421875 1583.279052734375 1590.2869873046875 1599.2960205078125 1607.39501953125 1614.7879638671875 1620.3819580078125 1622.583984375 1626.0830078125 1630.969970703125 1635.93505859375 1645.5579833984375 1658.02197265625 1673.5570068359375 1696.9119873046875 1718.8790283203125 1741.0460205078125 1763.324951171875 1806.385986328125 1811.56201171875 1822.93701171875 1841.1590576171875 1857.8280029296875 1876.927978515625 1907.199951171875 1927.032958984375 1943.4210205078125 1954.9110107421875 1970.489013671875 1991.260986328125 2015.79296875 2029.0479736328125 2045.406005859375 2059.97607421875 2075.47998046875 2089.574951171875 2102.2548828125 2114.094970703125 2126.2548828125 2137.7080078125 2150.52099609375 2162.455078125 2178.84912109375 2195.195068359375 2206.6259765625 2220.6689453125 2231.904052734375 2241.425048828125 2265.782958984375 2281.910888671875 2284.743896484375 2297.39892578125 2314.47509765625 2331.958984375 2351.781982421875 2368.68505859375 2377.2958984375 2389.89208984375 2400.160888671875 2401.35205078125 2407.2548828125 2420.054931640625 2433.445068359375 2447.89697265625 2462.9560546875 2479.096923828125 2495.8291015625 2513.159912109375 2531.200927734375 2549.512939453125 2569.013916015625 2588.4150390625 2609.406982421875 2631.718017578125 2655.239013671875 2678.10107421875 2704.69189453125 2723.593017578125 2745.675048828125 2781.595947265625 2807.406982421875 2850.9990234375 -9999 -9999 -9999 -9999 -9999 -9999 -9999 -9999 -9999 -9999 -9999 -9999 -9999 -9999 -9999 -9999 -9999 -9999 -9999 -9999 -9999 -9999 -9999 -9999 -9999 -9999 -9999 -9999 -9999 -9999 -9999
3091.2509765625 3075.7119140625 3052.123046875 3015.9541015625 3004.18505859375 2991.06591796875 2975.197021484375 2957.64794921875 2958.60888671875 2974.5791015625 2970.179931640625 2978.660888671875 2972.652099609375 2965.54296875 2948.02392578125 2935.844970703125 2917.31591796875 2902.507080078125 2892.778076171875 2876.4990234375 2858.428955078125 2834.93994140625 2812.7109375 2791.19189453125 2770.032958984375 2752.39404296875 2737.7548828125 2722.5458984375 2706.45703125 2689.89794921875 2673.158935546875 2653.949951171875 2637.719970703125 2623.160888671875 2611.08203125 2604.923095703125 2612.714111328125 2623.5849609375 2616.696044921875 2598.846923828125 2569.907958984375 2553.22900390625 2541.18994140625 2527.281005859375 2520.3310546875 2501.951904296875 2488.93310546875 2475.533935546875 2464.0048828125 2463.555908203125 2465.777099609375 2484.177978515625 2509.658935546875 2488.2099609375 2464.35107421875 2435.659912109375 2414.737060546875 2400.927001953125 2382.985107421875 2361.60107421875 2340.62109375 2323.59912109375 2307.468017578125 2293.0859375 2270.123046875 2246.416015625 2224.64697265625 2206.89501953125 2189.7548828125 2175.52197265625 2159.514892578125 2138.700927734375 2126.384033203125 2110.011962890625 2101.72900390625 2081.14208984375 2060.541015625 2041.8489990234375 2034.7049560546875 2025.552001953125 2015.4129638671875 2003.5970458984375 1990.178955078125 1974.375 1960.4169921875 1950.8990478515625 1943.219970703125 1934.8489990234375 1928.7130126953125 1921.4219970703125 1912.68505859375 1905.177001953125 1896.4959716796875 1893.4150390625 1894.593017578125 1899.363037109375 1899.531005859375 1889.968017578125 1878.89794921875 1863.1519775390625 1843.6199951171875 1823.3060302734375 1807.1519775390625 1790.387939453125 1771.56201171875 1751.5570068359375 1732.488037109375 1712.199951171875 1694.573974609375 1678.251953125 1655.5570068359375 1638.968994140625 1621.4599609375 1614.0810546875 1613.1739501953125 1604.6650390625 1601.344970703125 1600.197998046875 1599.279052734375 1601.3199462890625 1589.0660400390625 1583.0699462890625 1563.4539794921875 1542.0799560546875 1538.6180419921875 1580.60302734375 1586.9229736328125 1594.93505859375 1601.9649658203125 1608.9449462890625 1614.031982421875 1619.8399658203125 1624.0350341796875 1627.802001953125 1632.81103515625 1647.47900390625 1661.614990234375 1675.5009765625 1692.85595703125 1713.8900146484375 1736.7850341796875 1759.1949462890625 1802.1729736328125 1811.9820556640625 1827.383056640625 1844.175048828125 1859.60205078125 1877.5050048828125 1898.9940185546875 1922.2349853515625 1947.9410400390625 1963.45703125 1981.3360595703125 2001.779052734375 2025.5489501953125 2037.3909912109375 2055.537109375 2072.05908203125 2087.2109375 2103.166015625 2115.617919921875 2124.652099609375 2138.011962890625 2151.47412109375 2164.97509765625 2180.238037109375 2196.824951171875 2210.2470703125 2224.824951171875 2240.81005859375 2257.35595703125 2260.568115234375 2275.843017578125 2299.68603515625 2306.77099609375 2314.883056640625 2329.7451171875 2342.193115234375 2346.888916015625 2348.654052734375 2357.452880859375 2368.653076171875 2377.794921875 2389.3359375 2402.0869140625 2416.35888671875 2430.26904296875 2446.131103515625 2462.217041015625 2478.048095703125 2495.159912109375 2513.160888671875 2531.322021484375 2550.263916015625 2569.864990234375 2590.236083984375 2610.327880859375 2632.12890625 2652.889892578125 2674.60205078125 2698.153076171875 2727.60400390625 2743.8759765625 2769.697021484375 2795.528076171875 2819.840087890625 -9999 -9999 -9999 -9999 -9999 -9999 -9999 -9999 -9999 -9999 -9999 -9999 -9999 -9999 -9999 -9999 -9999 -9999 -9999 -9999 -9999 -9999 -9999 -9999 -9999 -9999 -9999 -9999 -9999 -9999 -9999
3078.001953125 3056.93310546875 3038.00390625 3001.27490234375 2986.506103515625 2973.846923828125 2958.05810546875 2939.6689453125 2934.989013671875 2940.760009765625 2940.200927734375 2942.862060546875 2952.873046875 2939.64404296875 2928.764892578125 2919.115966796875 2905.056884765625 2889.337890625 2878.198974609375 2868.7099609375 2851.169921875 2831.910888671875 2811.971923828125 2786.54296875 2764.053955078125 2743.4951171875 2726.535888671875 2715.5869140625 2702.76806640625 2683.2890625 2665.97998046875 2647.281005859375 2630.381103515625 2614.7919921875 2597.962890625 2584.323974609375 2577.264892578125 2585.736083984375 2591.197021484375 2566.087890625 2551.64892578125 2536.949951171875 2523.430908203125 2503.431884765625 2503.18310546875 2488.743896484375 2464.493896484375 2450.81494140625 2445.115966796875 2448.967041015625 2448.16796875 2458.259033203125 2493.2900390625 2505.8310546875 2482.06201171875 2455.506103515625 2427.805908203125 2413.509033203125 2396.35498046875 2378.547119140625 2356.94091796875 2337.340087890625 2321.2041015625 2302.64892578125 2284.785888671875 2261.89697265625 2242.507080078125 2222.02099609375 2199.80810546875 2185.2060546875 2170.468994140625 2156.5859375 2142.053955078125 2128.8720703125 2120.8291015625 2108.212890625 2081.94091796875 2057.47705078125 2034.031005859375 2022.27197265625 2012.6319580078125 1998.968017578125 1981.1810302734375 1971.20703125 1960.10205078125 1950.843994140625 1941.51904296875 1933.4150390625 1926.5880126953125 1915.6290283203125 1903.1190185546875 1899.001953125 1889.4560546875 1879.4110107421875 1877.0689697265625 1878.2659912109375 1878.8590087890625 1878.8680419921875 1875.991943359375 1865.116943359375 1844.387939453125 1822.884033203125 1803.2550048828125 1784.071044921875 1764.1190185546875 1744.552001953125 1728.3609619140625 1710.240966796875 1690.6070556640625 1672.2779541015625 1651.1729736328125 1631.406005859375 1613.322998046875 1595.6500244140625 1591.592041015625 1591.467041015625 1582.6590576171875 1589.803955078125 1595.0009765625 1596.406005859375 1582.16796875 1575.135986328125 1559.739990234375 1537.72998046875 1522.9549560546875 1578.0240478515625 1585.968994140625 1592.3060302734375 1597.6510009765625 1605.342041015625 1610.383056640625 1618.7249755859375 1621.7569580078125 1626.031982421875 1634.6490478515625 1649.843994140625 1665.5450439453125 1680.616943359375 1697.08203125 1713.5179443359375 1734.06298828125 1757.81005859375 1782.52197265625 1812.6839599609375 1829.97900390625 1842.9730224609375 1859.8609619140625 1880.72998046875 1901.324951171875 1924.9959716796875 1952.06396484375 1968.5439453125 1987.3509521484375 2008.2960205078125 2030.177978515625 2042.885986328125 2063.238037109375 2079.492919921875 2097.035888671875 2112.6298828125 2126.534912109375 2135.155029296875 2150.81591796875 2162.196044921875 2177.60888671875 2191.95703125 2207.05810546875 2223.74609375 2238.14794921875 2256.174072265625 2276.342041015625 2281.218017578125 2294.72998046875 2306.84912109375 2318.220947265625 2320.861083984375 2322.18310546875 2322.48291015625 2329.98388671875 2339.700927734375 2348.787109375 2360.9150390625 2374.010986328125 2386.821044921875 2399.5869140625 2414.719970703125 2429.052978515625 2444.1689453125 2457.587890625 2474.260009765625 2493.31103515625 2511.501953125 2528.23388671875 2546.614990234375 2564.89599609375 2585.028076171875 2626.72900390625 2639.800048828125 2658.552001953125 2677.29296875 2704.68408203125 2752.156005859375 2762.14697265625 2777.927978515625 2801.169921875 -9999 -9999 -9999 -9999 -9999 -9999 -9999 -9999 -9999 -9999 -9999 -9999 -9999 -9999 -9999 -9999 -9999 -9999 -9999 -9999 -9999 -9999 -9999 -9999 -9999 -9999 -9999 -9999 -9999 -9999 -9999 -9999
